-0.648 -0.678 -0.718 -0.758 -0.788 -0.815 -0.825 -0.845 -0.875 -0.895 -0.915 -0.945 -0.995 -1.071 -1.161 -1.251 -1.311 -1.361 -1.391 -1.421 -1.451 -1.482 -1.512 -1.552 -1.592 -1.632 -1.672 -1.712 -1.752 -1.785 -1.825 -1.865 -1.895 -1.945 -1.985 -2.025 -2.065 -2.095 -2.135 -2.155 -2.185 -2.215 -2.255 -2.295 -2.335 -2.381 -2.411 -2.451 -2.481 -2.511 -2.551 -2.591 -2.631 -2.674 -2.714 -2.724 -2.734 -2.734 -2.734 -2.734 -2.734 -2.730 -2.730 -2.730 -2.710 -2.700 -2.690 -2.690 -2.680 -2.672 -2.662 -2.642 -2.622 -2.602 -2.582 -2.572 -2.552 -2.542 -2.532 -2.522 -2.512 -2.512 -2.502 -2.502 -2.492 -2.483 -2.473 -2.473 -2.473 -2.463 -2.453 -2.433 -2.413 -2.390 -2.370 -2.350 -2.350 -2.340 -2.350 -2.350 -2.370 -2.386 -2.406 -2.426 -2.456 -2.476 -2.496 -2.516 -2.526 -2.520 -2.520 -2.530 -2.540 -2.570 -2.610 -2.640 -2.670 -2.677 -2.687 -2.697 -2.697 -2.717 -2.727 -2.747 -2.777 -2.807 -2.837 -2.877 -2.897 -2.927 -2.947 -2.957 -2.977 -2.985 -2.975 -2.965 -2.945 -2.925 -2.915 -2.895 -2.875 -2.853 -2.833 -2.813 -2.783 -2.743 -2.693 -2.633 -2.573 -2.526 -2.486 -2.456 -2.436 -2.416 -2.386 -2.346 -2.316 -2.282 -2.252 -2.242 -2.232 -2.232 -2.242 -2.252 -2.272 -2.319 -2.369 -2.399 -2.399 -2.379 -2.359 -2.359 -2.369 -2.416 -2.476 -2.546 -2.586 -2.596 -2.606 -2.616 -2.596 -2.581 -2.571 -2.581 -2.611 -2.651 -2.691 -2.731 -2.771 -2.800 -2.840 -2.880 -2.930 -2.980 -3.020 -3.080 -3.140 -3.214 -3.304 -3.394 -3.474 -3.534 -3.574 -3.584 -3.594 -3.600 -3.610 -3.600 -3.590 -3.580 -3.610 -3.660 -3.710 -3.762 -3.792 -3.822 -3.842 -3.872 -3.892 -3.922 -3.952 -3.982 -4.012 -4.042 -4.062 -4.062 -4.062 -4.072 -4.082 -4.110 -4.130 -4.160 -4.190 -4.210 -4.220 -4.240 -4.250 -4.270 -4.290 -4.300 -4.310 -4.320 -4.330 -4.340 -4.350 -4.375 -4.405 -4.425 -4.455 -4.465 -4.475 -4.475 -4.475 -4.469 -4.459 -4.469 -4.489 -4.519 -4.549 -4.599 -4.649 -4.706 -4.756 -4.826 -4.886 -4.956 -5.006 -5.046 -5.056 -5.077 -5.117 -5.157 -5.177 -5.157 -5.117 -5.067 -5.047 -5.055 -5.085 -5.115 -5.135 -5.135 -5.135 -5.155 -5.185 -5.223 -5.253 -5.273 -5.253 -5.223 -5.203 -5.233 -5.303 -5.369 -5.409 -5.409 -5.379 -5.279 -5.139 -4.989 -4.899 -4.925 -5.045 -5.215 -5.385 -5.515 -5.635 -5.735 -5.815 -5.877 -5.907 -5.937 -5.957 -5.967 -5.967 -5.957 -5.937 -5.896 -5.856 -5.816 -5.776 -5.736 -5.706 -5.666 -5.626 -5.605 -5.575 -5.565 -5.565 -5.575 -5.595 -5.645 -5.725 -5.826 -5.936 -6.036 -6.116 -6.166 -6.206 -6.216 -6.216 -6.200 -6.180 -6.160 -6.130 -6.120 -6.110 -6.110 -6.110 -6.095 -6.065 -6.035 -5.985 -5.925 -5.865 -5.795 -5.715 -5.647 -5.567 -5.457 -5.337 -5.227 -5.157 -5.127 -5.107 -5.039 -4.939 -4.819 -4.739 -4.719 -4.769 -4.869 -4.969 -5.016 -5.016 -4.986 -5.016 -5.126 -5.306 -5.486 -5.626 -5.720 -5.780 -5.810 -5.830 -5.860 -5.880 -5.910 -5.920 -5.891 -5.801 -5.671 -5.541 -5.451 -5.401 -5.381 -5.341 -5.298 -5.258 -5.248 -5.318 -5.438 -5.558 -5.638 -5.698 -5.735 -5.755 -5.775 -5.785 -5.775 -5.725 -5.675 -5.615 -5.571 -5.551 -5.561 -5.581 -5.601 -5.601 -5.591 -5.581 -5.570 -5.560 -5.560 -5.550 -5.540 -5.530 -5.520 -5.510 -5.496 -5.486 -5.476 -5.456 -5.426 -5.416 -5.426 -5.436 -5.456 -5.466 -5.466 -5.456 -5.446 -5.466 -5.496 -5.536 -5.576 -5.606 -5.616 -5.606 -5.576 -5.526 -5.456 -5.376 -5.299
-0.592 -0.612 -0.632 -0.662 -0.692 -0.725 -0.745 -0.775 -0.795 -0.815 -0.835 -0.855 -0.895 -0.968 -1.058 -1.138 -1.208 -1.258 -1.298 -1.318 -1.348 -1.379 -1.409 -1.449 -1.499 -1.539 -1.579 -1.619 -1.659 -1.695 -1.735 -1.765 -1.805 -1.845 -1.885 -1.925 -1.965 -1.999 -2.039 -2.069 -2.099 -2.129 -2.169 -2.209 -2.249 -2.294 -2.324 -2.364 -2.394 -2.434 -2.474 -2.514 -2.554 -2.591 -2.631 -2.641 -2.651 -2.641 -2.641 -2.651 -2.651 -2.654 -2.654 -2.644 -2.634 -2.624 -2.624 -2.614 -2.614 -2.604 -2.594 -2.584 -2.564 -2.544 -2.524 -2.514 -2.504 -2.494 -2.484 -2.474 -2.464 -2.454 -2.454 -2.444 -2.444 -2.431 -2.421 -2.411 -2.411 -2.401 -2.391 -2.371 -2.351 -2.339 -2.319 -2.309 -2.309 -2.309 -2.309 -2.319 -2.339 -2.363 -2.383 -2.413 -2.443 -2.463 -2.483 -2.503 -2.503 -2.503 -2.493 -2.503 -2.513 -2.533 -2.573 -2.613 -2.643 -2.662 -2.682 -2.692 -2.702 -2.712 -2.732 -2.752 -2.772 -2.801 -2.821 -2.851 -2.871 -2.881 -2.901 -2.921 -2.931 -2.934 -2.924 -2.904 -2.884 -2.874 -2.854 -2.834 -2.804 -2.779 -2.749 -2.729 -2.699 -2.669 -2.619 -2.559 -2.499 -2.450 -2.410 -2.370 -2.350 -2.320 -2.290 -2.270 -2.240 -2.215 -2.195 -2.185 -2.185 -2.185 -2.195 -2.205 -2.235 -2.280 -2.340 -2.370 -2.370 -2.350 -2.330 -2.320 -2.330 -2.365 -2.415 -2.475 -2.515 -2.545 -2.585 -2.615 -2.615 -2.584 -2.564 -2.564 -2.594 -2.634 -2.674 -2.714 -2.754 -2.791 -2.831 -2.871 -2.911 -2.961 -3.011 -3.061 -3.131 -3.204 -3.304 -3.394 -3.464 -3.514 -3.544 -3.554 -3.554 -3.559 -3.559 -3.549 -3.539 -3.539 -3.569 -3.619 -3.669 -3.713 -3.743 -3.773 -3.793 -3.823 -3.843 -3.873 -3.903 -3.935 -3.965 -3.995 -4.015 -4.025 -4.025 -4.035 -4.045 -4.064 -4.094 -4.124 -4.154 -4.174 -4.194 -4.204 -4.224 -4.240 -4.260 -4.280 -4.290 -4.300 -4.310 -4.320 -4.340 -4.367 -4.387 -4.417 -4.427 -4.437 -4.437 -4.437 -4.427 -4.420 -4.430 -4.440 -4.470 -4.500 -4.540 -4.590 -4.640 -4.696 -4.756 -4.826 -4.896 -4.966 -5.016 -5.056 -5.086 -5.107 -5.127 -5.137 -5.127 -5.107 -5.067 -5.027 -5.017 -5.019 -5.029 -5.039 -5.049 -5.059 -5.079 -5.099 -5.119 -5.141 -5.171 -5.191 -5.211 -5.221 -5.241 -5.281 -5.341 -5.384 -5.404 -5.384 -5.314 -5.224 -5.094 -4.964 -4.894 -4.933 -5.073 -5.253 -5.423 -5.563 -5.693 -5.793 -5.873 -5.916 -5.946 -5.966 -5.986 -5.996 -6.006 -5.996 -5.966 -5.935 -5.895 -5.845 -5.805 -5.775 -5.735 -5.695 -5.665 -5.639 -5.629 -5.619 -5.619 -5.619 -5.649 -5.699 -5.779 -5.881 -5.981 -6.081 -6.151 -6.201 -6.221 -6.231 -6.231 -6.217 -6.197 -6.177 -6.157 -6.137 -6.137 -6.127 -6.127 -6.109 -6.089 -6.049 -6.009 -5.949 -5.889 -5.839 -5.789 -5.751 -5.711 -5.641 -5.541 -5.451 -5.371 -5.311 -5.231 -5.115 -4.995 -4.865 -4.785 -4.755 -4.805 -4.885 -4.965 -4.978 -4.938 -4.888 -4.898 -5.018 -5.218 -5.428 -5.598 -5.716 -5.786 -5.826 -5.846 -5.866 -5.886 -5.916 -5.936 -5.921 -5.861 -5.731 -5.601 -5.481 -5.401 -5.341 -5.291 -5.254 -5.224 -5.234 -5.304 -5.424 -5.554 -5.664 -5.744 -5.797 -5.817 -5.837 -5.867 -5.877 -5.857 -5.807 -5.747 -5.684 -5.634 -5.604 -5.594 -5.584 -5.574 -5.564 -5.554 -5.537 -5.537 -5.527 -5.517 -5.507 -5.487 -5.477 -5.467 -5.457 -5.447 -5.437 -5.427 -5.397 -5.387 -5.387 -5.407 -5.421 -5.441 -5.451 -5.451 -5.451 -5.461 -5.491 -5.531 -5.570 -5.590 -5.600 -5.590 -5.550 -5.490 -5.420 -5.340 -5.259
-0.582 -0.582 -0.602 -0.612 -0.642 -0.675 -0.705 -0.725 -0.745 -0.765 -0.785 -0.805 -0.835 -0.888 -0.958 -1.048 -1.118 -1.168 -1.198 -1.228 -1.248 -1.279 -1.309 -1.359 -1.399 -1.439 -1.489 -1.519 -1.559 -1.595 -1.635 -1.675 -1.705 -1.745 -1.785 -1.825 -1.865 -1.909 -1.939 -1.979 -2.009 -2.049 -2.079 -2.119 -2.159 -2.204 -2.234 -2.274 -2.304 -2.344 -2.384 -2.424 -2.464 -2.501 -2.531 -2.551 -2.551 -2.551 -2.551 -2.561 -2.571 -2.574 -2.574 -2.564 -2.554 -2.554 -2.544 -2.544 -2.544 -2.534 -2.524 -2.514 -2.494 -2.474 -2.464 -2.454 -2.444 -2.434 -2.434 -2.424 -2.414 -2.404 -2.404 -2.394 -2.384 -2.371 -2.361 -2.351 -2.351 -2.341 -2.331 -2.311 -2.301 -2.289 -2.279 -2.279 -2.269 -2.279 -2.289 -2.299 -2.319 -2.343 -2.373 -2.403 -2.433 -2.453 -2.473 -2.483 -2.483 -2.483 -2.473 -2.473 -2.483 -2.503 -2.533 -2.563 -2.603 -2.632 -2.652 -2.662 -2.682 -2.692 -2.712 -2.732 -2.752 -2.781 -2.801 -2.821 -2.831 -2.841 -2.861 -2.871 -2.881 -2.884 -2.864 -2.844 -2.824 -2.804 -2.794 -2.764 -2.734 -2.699 -2.669 -2.639 -2.609 -2.579 -2.529 -2.479 -2.429 -2.390 -2.350 -2.310 -2.280 -2.260 -2.240 -2.220 -2.190 -2.165 -2.135 -2.125 -2.125 -2.135 -2.145 -2.165 -2.195 -2.240 -2.290 -2.320 -2.320 -2.310 -2.290 -2.300 -2.310 -2.335 -2.375 -2.415 -2.465 -2.505 -2.545 -2.585 -2.585 -2.564 -2.544 -2.554 -2.584 -2.624 -2.664 -2.704 -2.744 -2.781 -2.821 -2.861 -2.901 -2.951 -3.001 -3.061 -3.131 -3.214 -3.304 -3.394 -3.454 -3.494 -3.514 -3.514 -3.514 -3.509 -3.509 -3.509 -3.509 -3.519 -3.549 -3.589 -3.629 -3.663 -3.693 -3.723 -3.753 -3.773 -3.803 -3.833 -3.863 -3.885 -3.925 -3.955 -3.975 -3.985 -3.995 -3.995 -4.005 -4.024 -4.044 -4.074 -4.104 -4.134 -4.154 -4.174 -4.194 -4.220 -4.240 -4.250 -4.270 -4.280 -4.290 -4.310 -4.330 -4.357 -4.377 -4.397 -4.407 -4.407 -4.397 -4.397 -4.397 -4.400 -4.410 -4.430 -4.460 -4.490 -4.540 -4.590 -4.640 -4.706 -4.766 -4.826 -4.896 -4.966 -5.026 -5.066 -5.096 -5.117 -5.127 -5.117 -5.087 -5.057 -5.017 -4.997 -4.977 -4.979 -4.969 -4.959 -4.949 -4.969 -4.999 -5.019 -5.039 -5.051 -5.081 -5.121 -5.161 -5.201 -5.251 -5.311 -5.361 -5.394 -5.384 -5.324 -5.244 -5.144 -5.034 -4.934 -4.894 -4.953 -5.113 -5.303 -5.473 -5.623 -5.743 -5.843 -5.923 -5.966 -5.986 -5.996 -6.006 -6.026 -6.036 -6.026 -6.016 -5.975 -5.935 -5.895 -5.845 -5.805 -5.765 -5.735 -5.705 -5.679 -5.679 -5.669 -5.669 -5.679 -5.699 -5.749 -5.829 -5.931 -6.031 -6.121 -6.191 -6.231 -6.251 -6.261 -6.251 -6.237 -6.217 -6.207 -6.187 -6.177 -6.167 -6.157 -6.147 -6.129 -6.099 -6.059 -6.019 -5.969 -5.929 -5.899 -5.879 -5.861 -5.841 -5.811 -5.751 -5.671 -5.591 -5.501 -5.391 -5.255 -5.105 -4.965 -4.865 -4.815 -4.825 -4.875 -4.925 -4.918 -4.858 -4.798 -4.818 -4.948 -5.158 -5.388 -5.588 -5.716 -5.796 -5.836 -5.856 -5.876 -5.896 -5.916 -5.946 -5.941 -5.881 -5.771 -5.631 -5.501 -5.391 -5.301 -5.231 -5.184 -5.184 -5.214 -5.284 -5.404 -5.544 -5.674 -5.774 -5.837 -5.867 -5.897 -5.947 -5.987 -5.987 -5.947 -5.877 -5.794 -5.714 -5.654 -5.604 -5.574 -5.554 -5.534 -5.534 -5.517 -5.507 -5.497 -5.487 -5.477 -5.457 -5.447 -5.437 -5.427 -5.417 -5.407 -5.397 -5.377 -5.367 -5.367 -5.377 -5.401 -5.421 -5.431 -5.441 -5.441 -5.461 -5.491 -5.521 -5.550 -5.580 -5.580 -5.560 -5.520 -5.450 -5.370 -5.290 -5.219
-0.572 -0.582 -0.582 -0.602 -0.622 -0.655 -0.685 -0.705 -0.725 -0.745 -0.775 -0.785 -0.795 -0.818 -0.878 -0.948 -1.018 -1.058 -1.098 -1.128 -1.148 -1.179 -1.219 -1.259 -1.299 -1.339 -1.379 -1.429 -1.459 -1.495 -1.535 -1.575 -1.605 -1.635 -1.675 -1.715 -1.755 -1.809 -1.849 -1.889 -1.919 -1.959 -1.989 -2.029 -2.069 -2.104 -2.134 -2.174 -2.214 -2.254 -2.294 -2.324 -2.364 -2.401 -2.431 -2.441 -2.451 -2.451 -2.461 -2.471 -2.481 -2.484 -2.484 -2.484 -2.474 -2.474 -2.474 -2.474 -2.474 -2.464 -2.454 -2.444 -2.424 -2.414 -2.394 -2.384 -2.384 -2.374 -2.374 -2.364 -2.354 -2.354 -2.344 -2.334 -2.324 -2.321 -2.301 -2.291 -2.281 -2.271 -2.261 -2.261 -2.251 -2.249 -2.239 -2.239 -2.249 -2.249 -2.259 -2.279 -2.309 -2.333 -2.363 -2.393 -2.423 -2.453 -2.463 -2.473 -2.473 -2.473 -2.463 -2.453 -2.453 -2.473 -2.493 -2.523 -2.553 -2.582 -2.602 -2.622 -2.642 -2.662 -2.682 -2.702 -2.722 -2.741 -2.761 -2.781 -2.791 -2.801 -2.811 -2.821 -2.831 -2.824 -2.804 -2.784 -2.764 -2.744 -2.734 -2.704 -2.674 -2.639 -2.599 -2.559 -2.529 -2.489 -2.449 -2.409 -2.369 -2.330 -2.290 -2.260 -2.240 -2.220 -2.210 -2.190 -2.150 -2.115 -2.095 -2.085 -2.085 -2.095 -2.105 -2.125 -2.165 -2.210 -2.250 -2.270 -2.270 -2.260 -2.260 -2.270 -2.290 -2.315 -2.345 -2.395 -2.435 -2.465 -2.495 -2.525 -2.535 -2.524 -2.524 -2.534 -2.564 -2.604 -2.644 -2.694 -2.744 -2.781 -2.821 -2.861 -2.901 -2.941 -2.991 -3.051 -3.131 -3.214 -3.304 -3.384 -3.434 -3.464 -3.474 -3.474 -3.464 -3.469 -3.469 -3.479 -3.489 -3.509 -3.529 -3.569 -3.599 -3.623 -3.653 -3.683 -3.713 -3.733 -3.763 -3.793 -3.823 -3.845 -3.875 -3.915 -3.945 -3.955 -3.965 -3.965 -3.975 -3.994 -4.014 -4.034 -4.064 -4.094 -4.124 -4.144 -4.174 -4.190 -4.210 -4.230 -4.240 -4.260 -4.270 -4.290 -4.320 -4.337 -4.357 -4.377 -4.377 -4.377 -4.377 -4.367 -4.377 -4.380 -4.400 -4.420 -4.460 -4.490 -4.540 -4.590 -4.650 -4.706 -4.766 -4.836 -4.896 -4.966 -5.016 -5.056 -5.086 -5.107 -5.107 -5.087 -5.057 -5.007 -4.977 -4.947 -4.937 -4.929 -4.909 -4.889 -4.869 -4.879 -4.919 -4.939 -4.949 -4.961 -4.991 -5.041 -5.111 -5.171 -5.241 -5.311 -5.361 -5.384 -5.354 -5.264 -5.154 -5.054 -4.964 -4.894 -4.884 -4.973 -5.143 -5.353 -5.533 -5.683 -5.813 -5.903 -5.973 -6.006 -6.016 -6.026 -6.036 -6.056 -6.066 -6.066 -6.056 -6.025 -5.985 -5.935 -5.885 -5.845 -5.805 -5.775 -5.745 -5.729 -5.729 -5.729 -5.729 -5.739 -5.759 -5.809 -5.879 -5.971 -6.061 -6.151 -6.221 -6.271 -6.291 -6.291 -6.281 -6.267 -6.257 -6.247 -6.227 -6.217 -6.207 -6.197 -6.177 -6.159 -6.119 -6.079 -6.039 -6.009 -5.979 -5.969 -5.969 -5.971 -5.961 -5.951 -5.921 -5.861 -5.791 -5.701 -5.581 -5.435 -5.265 -5.115 -4.995 -4.925 -4.895 -4.885 -4.885 -4.848 -4.778 -4.738 -4.778 -4.918 -5.138 -5.378 -5.578 -5.706 -5.796 -5.836 -5.856 -5.876 -5.896 -5.916 -5.946 -5.941 -5.881 -5.761 -5.621 -5.471 -5.351 -5.231 -5.151 -5.114 -5.134 -5.194 -5.284 -5.414 -5.564 -5.704 -5.814 -5.887 -5.927 -5.977 -6.037 -6.097 -6.107 -6.077 -5.997 -5.904 -5.794 -5.694 -5.614 -5.574 -5.544 -5.534 -5.524 -5.517 -5.497 -5.487 -5.467 -5.457 -5.437 -5.427 -5.417 -5.397 -5.397 -5.387 -5.377 -5.357 -5.347 -5.347 -5.357 -5.381 -5.401 -5.421 -5.431 -5.441 -5.461 -5.481 -5.511 -5.540 -5.560 -5.550 -5.530 -5.480 -5.410 -5.330 -5.250 -5.179
-0.552 -0.552 -0.572 -0.592 -0.612 -0.635 -0.665 -0.695 -0.715 -0.745 -0.765 -0.775 -0.765 -0.778 -0.808 -0.858 -0.908 -0.948 -0.988 -1.018 -1.048 -1.089 -1.119 -1.149 -1.189 -1.229 -1.279 -1.319 -1.359 -1.395 -1.425 -1.465 -1.495 -1.535 -1.565 -1.605 -1.655 -1.699 -1.749 -1.789 -1.829 -1.859 -1.899 -1.929 -1.969 -2.004 -2.034 -2.074 -2.124 -2.164 -2.204 -2.234 -2.274 -2.301 -2.331 -2.351 -2.361 -2.361 -2.371 -2.381 -2.391 -2.394 -2.404 -2.404 -2.404 -2.404 -2.404 -2.404 -2.404 -2.394 -2.384 -2.374 -2.364 -2.354 -2.334 -2.324 -2.324 -2.314 -2.304 -2.294 -2.294 -2.284 -2.284 -2.284 -2.274 -2.261 -2.241 -2.231 -2.221 -2.211 -2.201 -2.201 -2.201 -2.209 -2.209 -2.209 -2.219 -2.219 -2.239 -2.259 -2.289 -2.313 -2.353 -2.383 -2.413 -2.443 -2.453 -2.463 -2.463 -2.453 -2.443 -2.443 -2.443 -2.453 -2.463 -2.483 -2.513 -2.542 -2.562 -2.582 -2.602 -2.622 -2.642 -2.662 -2.682 -2.711 -2.721 -2.741 -2.751 -2.761 -2.771 -2.771 -2.771 -2.764 -2.754 -2.724 -2.704 -2.694 -2.674 -2.654 -2.624 -2.589 -2.539 -2.499 -2.459 -2.419 -2.379 -2.349 -2.309 -2.280 -2.250 -2.220 -2.210 -2.200 -2.190 -2.160 -2.120 -2.075 -2.055 -2.055 -2.065 -2.075 -2.085 -2.105 -2.135 -2.170 -2.200 -2.220 -2.230 -2.230 -2.240 -2.260 -2.280 -2.305 -2.335 -2.365 -2.405 -2.435 -2.455 -2.475 -2.485 -2.494 -2.504 -2.514 -2.544 -2.574 -2.614 -2.674 -2.724 -2.771 -2.821 -2.851 -2.891 -2.931 -2.981 -3.051 -3.121 -3.204 -3.284 -3.354 -3.394 -3.424 -3.424 -3.424 -3.424 -3.429 -3.439 -3.449 -3.469 -3.489 -3.509 -3.539 -3.559 -3.593 -3.623 -3.643 -3.673 -3.693 -3.723 -3.753 -3.783 -3.805 -3.835 -3.865 -3.895 -3.915 -3.925 -3.925 -3.945 -3.964 -3.984 -4.004 -4.034 -4.064 -4.094 -4.124 -4.154 -4.170 -4.190 -4.210 -4.230 -4.240 -4.260 -4.270 -4.300 -4.317 -4.337 -4.347 -4.347 -4.347 -4.347 -4.357 -4.367 -4.380 -4.400 -4.420 -4.460 -4.500 -4.550 -4.600 -4.650 -4.706 -4.766 -4.826 -4.886 -4.946 -4.986 -5.016 -5.046 -5.067 -5.067 -5.047 -5.007 -4.967 -4.927 -4.897 -4.887 -4.879 -4.859 -4.839 -4.829 -4.839 -4.859 -4.859 -4.859 -4.861 -4.891 -4.961 -5.051 -5.141 -5.221 -5.291 -5.351 -5.364 -5.324 -5.224 -5.094 -4.974 -4.894 -4.844 -4.874 -4.993 -5.193 -5.403 -5.593 -5.753 -5.873 -5.963 -6.023 -6.046 -6.056 -6.056 -6.066 -6.086 -6.096 -6.096 -6.086 -6.045 -6.015 -5.965 -5.925 -5.885 -5.845 -5.815 -5.795 -5.789 -5.789 -5.789 -5.789 -5.799 -5.819 -5.859 -5.919 -6.001 -6.091 -6.181 -6.251 -6.301 -6.321 -6.321 -6.311 -6.307 -6.297 -6.287 -6.277 -6.267 -6.267 -6.247 -6.237 -6.199 -6.159 -6.109 -6.079 -6.049 -6.039 -6.039 -6.049 -6.061 -6.071 -6.071 -6.051 -6.021 -5.961 -5.881 -5.771 -5.625 -5.455 -5.295 -5.165 -5.075 -5.015 -4.965 -4.905 -4.828 -4.758 -4.728 -4.788 -4.938 -5.148 -5.378 -5.568 -5.706 -5.776 -5.826 -5.856 -5.876 -5.896 -5.916 -5.936 -5.921 -5.851 -5.721 -5.561 -5.411 -5.271 -5.151 -5.061 -5.034 -5.074 -5.164 -5.294 -5.454 -5.614 -5.754 -5.864 -5.937 -5.987 -6.037 -6.107 -6.167 -6.187 -6.147 -6.077 -5.984 -5.864 -5.744 -5.644 -5.594 -5.564 -5.554 -5.544 -5.517 -5.497 -5.477 -5.457 -5.437 -5.427 -5.417 -5.397 -5.387 -5.387 -5.377 -5.367 -5.347 -5.337 -5.337 -5.347 -5.371 -5.401 -5.421 -5.431 -5.441 -5.461 -5.481 -5.511 -5.530 -5.540 -5.530 -5.490 -5.430 -5.360 -5.290 -5.210 -5.139
-0.512 -0.522 -0.542 -0.562 -0.592 -0.615 -0.645 -0.685 -0.715 -0.745 -0.765 -0.765 -0.755 -0.748 -0.758 -0.778 -0.818 -0.848 -0.878 -0.918 -0.948 -0.989 -1.019 -1.039 -1.069 -1.109 -1.159 -1.199 -1.239 -1.275 -1.305 -1.345 -1.385 -1.415 -1.455 -1.505 -1.555 -1.599 -1.649 -1.689 -1.729 -1.759 -1.799 -1.829 -1.859 -1.894 -1.934 -1.984 -2.024 -2.074 -2.104 -2.144 -2.174 -2.211 -2.241 -2.261 -2.271 -2.271 -2.281 -2.281 -2.291 -2.294 -2.304 -2.314 -2.314 -2.324 -2.334 -2.334 -2.324 -2.324 -2.314 -2.314 -2.304 -2.284 -2.274 -2.264 -2.254 -2.244 -2.234 -2.224 -2.224 -2.224 -2.224 -2.214 -2.204 -2.191 -2.181 -2.171 -2.161 -2.151 -2.151 -2.151 -2.161 -2.169 -2.179 -2.179 -2.189 -2.199 -2.209 -2.229 -2.259 -2.293 -2.333 -2.363 -2.403 -2.423 -2.433 -2.443 -2.443 -2.443 -2.433 -2.423 -2.423 -2.433 -2.443 -2.453 -2.483 -2.502 -2.522 -2.552 -2.562 -2.582 -2.592 -2.612 -2.642 -2.661 -2.681 -2.691 -2.701 -2.711 -2.721 -2.721 -2.721 -2.714 -2.694 -2.684 -2.664 -2.644 -2.634 -2.614 -2.584 -2.549 -2.499 -2.449 -2.399 -2.359 -2.329 -2.299 -2.269 -2.240 -2.210 -2.190 -2.180 -2.180 -2.160 -2.120 -2.080 -2.045 -2.035 -2.055 -2.065 -2.065 -2.075 -2.085 -2.105 -2.140 -2.160 -2.180 -2.200 -2.210 -2.220 -2.240 -2.270 -2.295 -2.315 -2.355 -2.385 -2.415 -2.435 -2.455 -2.465 -2.474 -2.494 -2.504 -2.524 -2.554 -2.584 -2.634 -2.694 -2.751 -2.791 -2.831 -2.871 -2.911 -2.971 -3.041 -3.111 -3.184 -3.254 -3.314 -3.354 -3.374 -3.374 -3.374 -3.374 -3.379 -3.399 -3.409 -3.429 -3.449 -3.469 -3.499 -3.529 -3.553 -3.583 -3.613 -3.633 -3.663 -3.683 -3.713 -3.743 -3.765 -3.795 -3.815 -3.845 -3.865 -3.875 -3.895 -3.915 -3.934 -3.964 -3.984 -4.014 -4.044 -4.074 -4.104 -4.134 -4.160 -4.180 -4.200 -4.210 -4.220 -4.240 -4.250 -4.270 -4.287 -4.297 -4.307 -4.317 -4.327 -4.337 -4.347 -4.357 -4.370 -4.390 -4.420 -4.460 -4.500 -4.560 -4.610 -4.660 -4.706 -4.756 -4.806 -4.856 -4.906 -4.946 -4.976 -4.986 -4.997 -4.997 -4.977 -4.947 -4.917 -4.877 -4.847 -4.827 -4.829 -4.829 -4.829 -4.829 -4.829 -4.829 -4.799 -4.759 -4.761 -4.801 -4.881 -4.991 -5.091 -5.181 -5.271 -5.331 -5.354 -5.324 -5.214 -5.074 -4.944 -4.844 -4.814 -4.884 -5.043 -5.253 -5.473 -5.663 -5.813 -5.933 -6.023 -6.073 -6.096 -6.106 -6.106 -6.106 -6.116 -6.126 -6.126 -6.096 -6.065 -6.025 -5.995 -5.955 -5.915 -5.885 -5.865 -5.855 -5.849 -5.859 -5.859 -5.859 -5.869 -5.879 -5.909 -5.959 -6.031 -6.121 -6.201 -6.271 -6.321 -6.341 -6.351 -6.351 -6.337 -6.337 -6.327 -6.327 -6.327 -6.327 -6.317 -6.287 -6.249 -6.199 -6.159 -6.119 -6.099 -6.099 -6.109 -6.129 -6.141 -6.151 -6.151 -6.151 -6.131 -6.091 -6.021 -5.931 -5.805 -5.645 -5.495 -5.365 -5.265 -5.185 -5.095 -4.995 -4.888 -4.808 -4.788 -4.848 -4.998 -5.198 -5.408 -5.578 -5.696 -5.766 -5.816 -5.846 -5.876 -5.896 -5.916 -5.936 -5.911 -5.841 -5.691 -5.521 -5.351 -5.211 -5.091 -5.001 -4.964 -5.024 -5.154 -5.324 -5.514 -5.684 -5.814 -5.904 -5.957 -5.997 -6.057 -6.127 -6.187 -6.207 -6.177 -6.117 -6.034 -5.914 -5.784 -5.684 -5.624 -5.604 -5.584 -5.564 -5.537 -5.497 -5.477 -5.457 -5.437 -5.417 -5.407 -5.397 -5.387 -5.377 -5.377 -5.357 -5.347 -5.327 -5.317 -5.327 -5.361 -5.391 -5.421 -5.431 -5.441 -5.451 -5.471 -5.491 -5.510 -5.520 -5.500 -5.460 -5.390 -5.320 -5.240 -5.170 -5.109
-0.472 -0.492 -0.512 -0.532 -0.562 -0.585 -0.625 -0.675 -0.705 -0.745 -0.765 -0.765 -0.755 -0.738 -0.738 -0.738 -0.758 -0.788 -0.808 -0.838 -0.878 -0.909 -0.929 -0.939 -0.959 -0.989 -1.029 -1.069 -1.109 -1.135 -1.175 -1.215 -1.265 -1.305 -1.355 -1.405 -1.455 -1.509 -1.549 -1.599 -1.629 -1.669 -1.699 -1.729 -1.759 -1.794 -1.834 -1.884 -1.924 -1.974 -2.004 -2.044 -2.074 -2.111 -2.141 -2.161 -2.171 -2.171 -2.171 -2.171 -2.181 -2.194 -2.204 -2.214 -2.224 -2.234 -2.244 -2.244 -2.244 -2.244 -2.244 -2.234 -2.224 -2.214 -2.194 -2.184 -2.174 -2.164 -2.154 -2.154 -2.144 -2.144 -2.144 -2.144 -2.134 -2.131 -2.121 -2.111 -2.101 -2.101 -2.101 -2.111 -2.121 -2.129 -2.139 -2.149 -2.149 -2.159 -2.179 -2.199 -2.229 -2.263 -2.293 -2.333 -2.363 -2.383 -2.403 -2.403 -2.413 -2.413 -2.413 -2.403 -2.403 -2.403 -2.413 -2.433 -2.453 -2.472 -2.492 -2.502 -2.522 -2.532 -2.542 -2.562 -2.592 -2.611 -2.621 -2.641 -2.651 -2.651 -2.661 -2.661 -2.661 -2.654 -2.644 -2.634 -2.624 -2.604 -2.594 -2.574 -2.554 -2.519 -2.469 -2.409 -2.359 -2.319 -2.289 -2.269 -2.259 -2.230 -2.200 -2.170 -2.160 -2.150 -2.120 -2.090 -2.050 -2.035 -2.035 -2.055 -2.065 -2.065 -2.065 -2.065 -2.085 -2.110 -2.130 -2.150 -2.170 -2.190 -2.210 -2.230 -2.260 -2.285 -2.305 -2.335 -2.365 -2.395 -2.425 -2.445 -2.465 -2.474 -2.494 -2.504 -2.524 -2.544 -2.564 -2.614 -2.664 -2.721 -2.761 -2.801 -2.841 -2.891 -2.951 -3.011 -3.071 -3.134 -3.194 -3.254 -3.294 -3.314 -3.324 -3.324 -3.324 -3.339 -3.359 -3.369 -3.389 -3.409 -3.429 -3.459 -3.489 -3.523 -3.553 -3.583 -3.603 -3.623 -3.653 -3.673 -3.703 -3.725 -3.755 -3.775 -3.795 -3.825 -3.845 -3.865 -3.895 -3.914 -3.944 -3.974 -4.004 -4.024 -4.054 -4.084 -4.114 -4.150 -4.170 -4.190 -4.200 -4.210 -4.220 -4.230 -4.240 -4.257 -4.267 -4.277 -4.297 -4.307 -4.327 -4.337 -4.347 -4.370 -4.390 -4.420 -4.460 -4.500 -4.560 -4.610 -4.660 -4.696 -4.736 -4.776 -4.816 -4.856 -4.886 -4.906 -4.926 -4.927 -4.927 -4.907 -4.887 -4.857 -4.827 -4.797 -4.777 -4.779 -4.799 -4.819 -4.829 -4.829 -4.799 -4.739 -4.679 -4.671 -4.711 -4.811 -4.921 -5.041 -5.141 -5.231 -5.311 -5.354 -5.324 -5.234 -5.104 -4.964 -4.864 -4.844 -4.934 -5.113 -5.343 -5.553 -5.743 -5.883 -5.993 -6.083 -6.133 -6.156 -6.166 -6.156 -6.146 -6.146 -6.146 -6.136 -6.106 -6.065 -6.035 -6.005 -5.975 -5.945 -5.925 -5.905 -5.905 -5.909 -5.919 -5.919 -5.929 -5.929 -5.939 -5.959 -5.999 -6.061 -6.141 -6.221 -6.291 -6.341 -6.371 -6.381 -6.381 -6.387 -6.387 -6.387 -6.387 -6.387 -6.387 -6.367 -6.347 -6.299 -6.249 -6.199 -6.169 -6.139 -6.139 -6.159 -6.179 -6.201 -6.211 -6.211 -6.211 -6.201 -6.181 -6.131 -6.051 -5.945 -5.815 -5.685 -5.565 -5.465 -5.365 -5.255 -5.135 -5.018 -4.928 -4.908 -4.958 -5.088 -5.268 -5.448 -5.598 -5.696 -5.766 -5.816 -5.846 -5.876 -5.906 -5.926 -5.936 -5.921 -5.841 -5.701 -5.521 -5.351 -5.201 -5.071 -4.981 -4.954 -5.014 -5.164 -5.364 -5.564 -5.734 -5.844 -5.904 -5.937 -5.967 -6.017 -6.087 -6.147 -6.187 -6.167 -6.117 -6.044 -5.934 -5.824 -5.724 -5.664 -5.644 -5.624 -5.584 -5.547 -5.507 -5.477 -5.457 -5.437 -5.427 -5.417 -5.407 -5.397 -5.387 -5.377 -5.357 -5.337 -5.317 -5.307 -5.317 -5.351 -5.381 -5.411 -5.421 -5.431 -5.441 -5.451 -5.481 -5.500 -5.500 -5.470 -5.420 -5.350 -5.280 -5.200 -5.130 -5.079
-0.432 -0.462 -0.492 -0.512 -0.542 -0.575 -0.625 -0.665 -0.705 -0.745 -0.765 -0.765 -0.755 -0.748 -0.738 -0.738 -0.738 -0.758 -0.778 -0.798 -0.818 -0.829 -0.839 -0.849 -0.859 -0.889 -0.909 -0.939 -0.959 -0.995 -1.035 -1.075 -1.135 -1.185 -1.245 -1.305 -1.355 -1.409 -1.459 -1.499 -1.539 -1.569 -1.599 -1.629 -1.659 -1.694 -1.734 -1.774 -1.814 -1.854 -1.894 -1.924 -1.954 -1.991 -2.031 -2.051 -2.061 -2.061 -2.061 -2.061 -2.071 -2.084 -2.094 -2.114 -2.124 -2.134 -2.144 -2.154 -2.154 -2.154 -2.154 -2.144 -2.134 -2.124 -2.114 -2.104 -2.094 -2.084 -2.074 -2.064 -2.064 -2.064 -2.064 -2.064 -2.054 -2.051 -2.051 -2.041 -2.041 -2.041 -2.051 -2.061 -2.081 -2.099 -2.109 -2.109 -2.119 -2.129 -2.139 -2.169 -2.189 -2.223 -2.243 -2.273 -2.303 -2.333 -2.343 -2.353 -2.363 -2.363 -2.373 -2.373 -2.373 -2.383 -2.383 -2.403 -2.413 -2.432 -2.442 -2.452 -2.472 -2.482 -2.492 -2.512 -2.532 -2.551 -2.561 -2.571 -2.591 -2.591 -2.601 -2.601 -2.601 -2.594 -2.594 -2.584 -2.584 -2.574 -2.554 -2.544 -2.524 -2.499 -2.449 -2.389 -2.329 -2.289 -2.269 -2.259 -2.259 -2.230 -2.190 -2.160 -2.150 -2.130 -2.100 -2.060 -2.040 -2.025 -2.035 -2.045 -2.055 -2.045 -2.045 -2.055 -2.065 -2.090 -2.110 -2.130 -2.150 -2.170 -2.200 -2.220 -2.250 -2.275 -2.295 -2.325 -2.355 -2.385 -2.415 -2.445 -2.465 -2.484 -2.494 -2.514 -2.524 -2.544 -2.564 -2.604 -2.644 -2.701 -2.741 -2.771 -2.811 -2.851 -2.911 -2.961 -3.011 -3.054 -3.114 -3.174 -3.214 -3.244 -3.264 -3.274 -3.284 -3.309 -3.329 -3.349 -3.359 -3.369 -3.379 -3.399 -3.429 -3.473 -3.513 -3.543 -3.573 -3.593 -3.613 -3.643 -3.663 -3.695 -3.715 -3.735 -3.765 -3.785 -3.815 -3.845 -3.875 -3.904 -3.924 -3.954 -3.984 -4.014 -4.034 -4.064 -4.094 -4.130 -4.170 -4.190 -4.190 -4.190 -4.190 -4.200 -4.210 -4.227 -4.247 -4.257 -4.277 -4.297 -4.307 -4.327 -4.347 -4.360 -4.390 -4.420 -4.450 -4.500 -4.550 -4.600 -4.640 -4.676 -4.706 -4.736 -4.766 -4.796 -4.826 -4.836 -4.846 -4.857 -4.847 -4.837 -4.827 -4.807 -4.777 -4.747 -4.737 -4.749 -4.779 -4.809 -4.819 -4.809 -4.769 -4.689 -4.629 -4.611 -4.651 -4.741 -4.861 -4.991 -5.101 -5.201 -5.281 -5.344 -5.344 -5.284 -5.174 -5.054 -4.954 -4.934 -5.024 -5.213 -5.433 -5.643 -5.823 -5.953 -6.063 -6.133 -6.183 -6.216 -6.216 -6.206 -6.176 -6.166 -6.156 -6.136 -6.106 -6.065 -6.035 -6.015 -5.995 -5.975 -5.955 -5.945 -5.955 -5.969 -5.979 -5.979 -5.989 -5.989 -5.999 -6.019 -6.049 -6.101 -6.161 -6.231 -6.301 -6.361 -6.391 -6.411 -6.421 -6.427 -6.427 -6.437 -6.437 -6.437 -6.437 -6.417 -6.387 -6.339 -6.289 -6.239 -6.209 -6.179 -6.179 -6.189 -6.209 -6.231 -6.251 -6.261 -6.261 -6.251 -6.231 -6.191 -6.141 -6.065 -5.965 -5.855 -5.735 -5.625 -5.525 -5.415 -5.305 -5.198 -5.108 -5.068 -5.098 -5.198 -5.348 -5.508 -5.628 -5.716 -5.776 -5.816 -5.856 -5.886 -5.906 -5.936 -5.946 -5.931 -5.861 -5.731 -5.561 -5.381 -5.221 -5.101 -5.021 -4.994 -5.064 -5.214 -5.414 -5.594 -5.744 -5.824 -5.874 -5.887 -5.907 -5.937 -6.007 -6.077 -6.127 -6.127 -6.087 -6.024 -5.934 -5.834 -5.754 -5.704 -5.664 -5.644 -5.604 -5.567 -5.527 -5.487 -5.457 -5.437 -5.427 -5.427 -5.427 -5.417 -5.407 -5.387 -5.357 -5.337 -5.317 -5.307 -5.317 -5.351 -5.381 -5.401 -5.411 -5.411 -5.421 -5.441 -5.461 -5.480 -5.480 -5.440 -5.380 -5.310 -5.240 -5.170 -5.100 -5.049
-0.372 -0.422 -0.452 -0.492 -0.522 -0.565 -0.615 -0.665 -0.705 -0.725 -0.735 -0.745 -0.745 -0.738 -0.738 -0.738 -0.738 -0.748 -0.758 -0.758 -0.758 -0.769 -0.769 -0.779 -0.789 -0.799 -0.799 -0.809 -0.829 -0.855 -0.895 -0.935 -0.995 -1.065 -1.135 -1.195 -1.255 -1.299 -1.359 -1.399 -1.449 -1.479 -1.509 -1.539 -1.559 -1.594 -1.624 -1.654 -1.694 -1.724 -1.764 -1.794 -1.824 -1.861 -1.891 -1.921 -1.931 -1.941 -1.951 -1.951 -1.951 -1.954 -1.964 -1.984 -2.004 -2.024 -2.034 -2.044 -2.054 -2.064 -2.064 -2.054 -2.044 -2.034 -2.024 -2.014 -2.004 -1.994 -1.984 -1.974 -1.974 -1.974 -1.974 -1.974 -1.974 -1.971 -1.971 -1.971 -1.981 -1.991 -2.001 -2.021 -2.041 -2.059 -2.069 -2.079 -2.089 -2.099 -2.109 -2.129 -2.149 -2.173 -2.193 -2.213 -2.243 -2.263 -2.283 -2.293 -2.303 -2.313 -2.323 -2.323 -2.333 -2.343 -2.353 -2.363 -2.373 -2.382 -2.392 -2.402 -2.412 -2.422 -2.442 -2.462 -2.472 -2.481 -2.501 -2.511 -2.521 -2.531 -2.541 -2.541 -2.541 -2.544 -2.544 -2.534 -2.534 -2.524 -2.514 -2.504 -2.494 -2.469 -2.419 -2.369 -2.319 -2.289 -2.269 -2.259 -2.259 -2.230 -2.190 -2.160 -2.140 -2.120 -2.080 -2.050 -2.030 -2.025 -2.035 -2.035 -2.035 -2.035 -2.035 -2.045 -2.055 -2.070 -2.090 -2.110 -2.140 -2.170 -2.190 -2.220 -2.250 -2.275 -2.295 -2.325 -2.345 -2.385 -2.415 -2.445 -2.475 -2.494 -2.504 -2.524 -2.534 -2.554 -2.584 -2.614 -2.644 -2.691 -2.721 -2.751 -2.781 -2.821 -2.871 -2.911 -2.941 -2.974 -3.024 -3.084 -3.134 -3.174 -3.194 -3.224 -3.254 -3.289 -3.319 -3.329 -3.329 -3.329 -3.329 -3.349 -3.379 -3.423 -3.473 -3.513 -3.533 -3.563 -3.583 -3.613 -3.633 -3.665 -3.685 -3.705 -3.725 -3.755 -3.785 -3.815 -3.855 -3.884 -3.914 -3.934 -3.964 -3.984 -4.004 -4.034 -4.064 -4.110 -4.150 -4.170 -4.170 -4.160 -4.170 -4.180 -4.190 -4.207 -4.227 -4.237 -4.257 -4.267 -4.287 -4.307 -4.327 -4.360 -4.380 -4.410 -4.440 -4.480 -4.530 -4.570 -4.610 -4.646 -4.676 -4.696 -4.716 -4.736 -4.756 -4.766 -4.776 -4.777 -4.777 -4.777 -4.767 -4.747 -4.727 -4.707 -4.697 -4.729 -4.759 -4.789 -4.799 -4.789 -4.739 -4.669 -4.609 -4.591 -4.631 -4.711 -4.831 -4.951 -5.061 -5.171 -5.261 -5.334 -5.364 -5.334 -5.254 -5.164 -5.074 -5.064 -5.164 -5.343 -5.543 -5.743 -5.903 -6.023 -6.123 -6.183 -6.233 -6.256 -6.256 -6.236 -6.196 -6.166 -6.146 -6.136 -6.096 -6.065 -6.035 -6.025 -6.015 -5.995 -5.985 -5.985 -5.995 -6.009 -6.029 -6.039 -6.039 -6.049 -6.059 -6.069 -6.099 -6.141 -6.191 -6.261 -6.321 -6.381 -6.421 -6.441 -6.451 -6.457 -6.467 -6.477 -6.477 -6.477 -6.467 -6.447 -6.417 -6.369 -6.319 -6.279 -6.239 -6.219 -6.209 -6.219 -6.239 -6.261 -6.281 -6.291 -6.291 -6.281 -6.261 -6.231 -6.191 -6.145 -6.075 -5.985 -5.865 -5.755 -5.645 -5.565 -5.485 -5.408 -5.328 -5.268 -5.258 -5.328 -5.438 -5.558 -5.658 -5.736 -5.786 -5.836 -5.866 -5.896 -5.916 -5.936 -5.946 -5.921 -5.851 -5.731 -5.561 -5.391 -5.241 -5.141 -5.081 -5.074 -5.144 -5.274 -5.434 -5.574 -5.684 -5.764 -5.814 -5.827 -5.827 -5.857 -5.917 -5.997 -6.047 -6.067 -6.037 -5.974 -5.904 -5.834 -5.764 -5.724 -5.684 -5.654 -5.614 -5.577 -5.537 -5.497 -5.467 -5.447 -5.437 -5.437 -5.437 -5.437 -5.417 -5.397 -5.357 -5.327 -5.307 -5.297 -5.317 -5.351 -5.381 -5.391 -5.401 -5.401 -5.411 -5.431 -5.451 -5.470 -5.450 -5.410 -5.350 -5.280 -5.200 -5.140 -5.080 -5.029
-0.285 -0.345 -0.395 -0.445 -0.495 -0.551 -0.611 -0.661 -0.691 -0.701 -0.701 -0.701 -0.701 -0.700 -0.710 -0.720 -0.720 -0.720 -0.710 -0.710 -0.700 -0.701 -0.711 -0.721 -0.731 -0.731 -0.721 -0.721 -0.721 -0.741 -0.771 -0.811 -0.861 -0.931 -1.001 -1.071 -1.131 -1.187 -1.237 -1.297 -1.347 -1.387 -1.417 -1.437 -1.467 -1.487 -1.507 -1.527 -1.557 -1.587 -1.617 -1.647 -1.677 -1.713 -1.753 -1.783 -1.803 -1.823 -1.833 -1.833 -1.823 -1.818 -1.818 -1.838 -1.858 -1.888 -1.918 -1.938 -1.958 -1.973 -1.973 -1.963 -1.953 -1.943 -1.933 -1.923 -1.913 -1.898 -1.888 -1.878 -1.878 -1.878 -1.878 -1.878 -1.878 -1.880 -1.890 -1.900 -1.910 -1.930 -1.950 -1.980 -2.000 -2.020 -2.040 -2.050 -2.060 -2.070 -2.080 -2.090 -2.100 -2.117 -2.137 -2.157 -2.177 -2.197 -2.217 -2.227 -2.237 -2.251 -2.261 -2.271 -2.281 -2.291 -2.301 -2.311 -2.321 -2.328 -2.328 -2.338 -2.358 -2.368 -2.378 -2.398 -2.408 -2.420 -2.430 -2.450 -2.460 -2.470 -2.480 -2.490 -2.490 -2.490 -2.490 -2.490 -2.480 -2.480 -2.470 -2.460 -2.450 -2.434 -2.404 -2.364 -2.324 -2.294 -2.274 -2.264 -2.254 -2.222 -2.182 -2.162 -2.132 -2.112 -2.072 -2.042 -2.022 -2.019 -2.019 -2.019 -2.019 -2.029 -2.039 -2.049 -2.059 -2.070 -2.090 -2.110 -2.140 -2.160 -2.190 -2.220 -2.250 -2.283 -2.303 -2.323 -2.353 -2.383 -2.423 -2.453 -2.483 -2.501 -2.521 -2.531 -2.551 -2.581 -2.601 -2.621 -2.661 -2.692 -2.722 -2.742 -2.772 -2.802 -2.842 -2.872 -2.902 -2.927 -2.967 -3.017 -3.057 -3.097 -3.127 -3.167 -3.217 -3.267 -3.297 -3.307 -3.307 -3.307 -3.287 -3.297 -3.327 -3.378 -3.438 -3.478 -3.508 -3.528 -3.558 -3.578 -3.608 -3.639 -3.659 -3.679 -3.699 -3.719 -3.749 -3.789 -3.829 -3.862 -3.892 -3.912 -3.932 -3.952 -3.972 -3.992 -4.032 -4.076 -4.106 -4.126 -4.126 -4.126 -4.136 -4.156 -4.176 -4.189 -4.209 -4.219 -4.229 -4.239 -4.259 -4.279 -4.309 -4.338 -4.368 -4.388 -4.418 -4.458 -4.508 -4.548 -4.588 -4.616 -4.646 -4.666 -4.676 -4.686 -4.696 -4.706 -4.716 -4.721 -4.721 -4.721 -4.721 -4.701 -4.691 -4.671 -4.681 -4.712 -4.742 -4.772 -4.772 -4.762 -4.722 -4.672 -4.632 -4.612 -4.642 -4.722 -4.832 -4.932 -5.032 -5.132 -5.222 -5.305 -5.365 -5.365 -5.325 -5.255 -5.205 -5.205 -5.305 -5.465 -5.655 -5.835 -5.975 -6.095 -6.175 -6.235 -6.265 -6.285 -6.275 -6.245 -6.205 -6.165 -6.145 -6.125 -6.095 -6.060 -6.040 -6.030 -6.030 -6.020 -6.010 -6.020 -6.030 -6.054 -6.074 -6.084 -6.084 -6.094 -6.104 -6.124 -6.144 -6.184 -6.224 -6.284 -6.344 -6.404 -6.434 -6.464 -6.474 -6.488 -6.488 -6.498 -6.498 -6.498 -6.488 -6.458 -6.428 -6.384 -6.334 -6.294 -6.264 -6.234 -6.234 -6.244 -6.264 -6.285 -6.295 -6.315 -6.305 -6.295 -6.275 -6.255 -6.235 -6.202 -6.162 -6.082 -5.972 -5.862 -5.762 -5.702 -5.672 -5.622 -5.552 -5.482 -5.452 -5.472 -5.542 -5.632 -5.702 -5.758 -5.818 -5.858 -5.888 -5.908 -5.918 -5.938 -5.928 -5.892 -5.802 -5.662 -5.502 -5.352 -5.232 -5.162 -5.132 -5.142 -5.202 -5.302 -5.402 -5.492 -5.582 -5.682 -5.742 -5.773 -5.783 -5.803 -5.843 -5.913 -5.963 -5.983 -5.963 -5.918 -5.868 -5.818 -5.768 -5.738 -5.698 -5.658 -5.628 -5.592 -5.552 -5.502 -5.472 -5.452 -5.442 -5.442 -5.442 -5.443 -5.423 -5.393 -5.363 -5.333 -5.313 -5.303 -5.323 -5.350 -5.380 -5.400 -5.410 -5.410 -5.410 -5.430 -5.450 -5.452 -5.432 -5.382 -5.312 -5.242 -5.172 -5.112 -5.052 -5.006
-0.195 -0.245 -0.305 -0.365 -0.435 -0.501 -0.561 -0.611 -0.641 -0.651 -0.651 -0.651 -0.651 -0.660 -0.680 -0.690 -0.690 -0.690 -0.680 -0.670 -0.660 -0.661 -0.671 -0.671 -0.681 -0.681 -0.681 -0.671 -0.671 -0.671 -0.691 -0.721 -0.761 -0.811 -0.871 -0.931 -0.991 -1.047 -1.117 -1.177 -1.237 -1.287 -1.317 -1.347 -1.367 -1.377 -1.377 -1.387 -1.407 -1.437 -1.467 -1.497 -1.537 -1.573 -1.613 -1.643 -1.673 -1.693 -1.713 -1.713 -1.703 -1.688 -1.678 -1.688 -1.718 -1.758 -1.788 -1.818 -1.848 -1.873 -1.873 -1.873 -1.873 -1.863 -1.853 -1.833 -1.823 -1.808 -1.798 -1.788 -1.788 -1.788 -1.788 -1.788 -1.798 -1.800 -1.810 -1.830 -1.850 -1.870 -1.890 -1.920 -1.950 -1.980 -2.000 -2.010 -2.020 -2.030 -2.040 -2.040 -2.050 -2.057 -2.077 -2.087 -2.107 -2.127 -2.147 -2.157 -2.177 -2.191 -2.201 -2.211 -2.231 -2.231 -2.241 -2.251 -2.261 -2.268 -2.268 -2.278 -2.298 -2.308 -2.328 -2.338 -2.348 -2.360 -2.380 -2.390 -2.410 -2.420 -2.430 -2.440 -2.440 -2.440 -2.440 -2.440 -2.430 -2.430 -2.420 -2.420 -2.410 -2.404 -2.374 -2.354 -2.324 -2.294 -2.284 -2.264 -2.244 -2.212 -2.172 -2.152 -2.122 -2.092 -2.062 -2.022 -2.002 -1.999 -2.009 -2.019 -2.029 -2.049 -2.059 -2.069 -2.069 -2.080 -2.090 -2.110 -2.140 -2.170 -2.200 -2.230 -2.260 -2.283 -2.313 -2.333 -2.363 -2.393 -2.433 -2.463 -2.493 -2.511 -2.531 -2.541 -2.571 -2.591 -2.621 -2.641 -2.661 -2.692 -2.712 -2.742 -2.762 -2.792 -2.822 -2.862 -2.882 -2.907 -2.937 -2.977 -3.017 -3.047 -3.087 -3.127 -3.177 -3.227 -3.257 -3.267 -3.277 -3.267 -3.247 -3.247 -3.287 -3.348 -3.408 -3.448 -3.478 -3.498 -3.528 -3.548 -3.578 -3.609 -3.629 -3.649 -3.659 -3.679 -3.719 -3.759 -3.799 -3.842 -3.872 -3.892 -3.902 -3.922 -3.932 -3.962 -3.992 -4.036 -4.056 -4.076 -4.086 -4.086 -4.106 -4.126 -4.156 -4.169 -4.189 -4.189 -4.199 -4.209 -4.229 -4.249 -4.289 -4.318 -4.338 -4.368 -4.398 -4.438 -4.488 -4.528 -4.568 -4.596 -4.626 -4.636 -4.646 -4.656 -4.656 -4.666 -4.666 -4.671 -4.681 -4.681 -4.681 -4.671 -4.661 -4.651 -4.661 -4.682 -4.712 -4.732 -4.732 -4.722 -4.702 -4.672 -4.652 -4.642 -4.682 -4.752 -4.852 -4.932 -5.012 -5.092 -5.182 -5.275 -5.355 -5.385 -5.365 -5.325 -5.295 -5.315 -5.425 -5.585 -5.755 -5.915 -6.045 -6.145 -6.215 -6.265 -6.295 -6.305 -6.295 -6.265 -6.215 -6.175 -6.135 -6.105 -6.085 -6.060 -6.050 -6.050 -6.050 -6.050 -6.040 -6.050 -6.070 -6.094 -6.114 -6.124 -6.124 -6.134 -6.154 -6.164 -6.194 -6.224 -6.254 -6.304 -6.354 -6.404 -6.444 -6.464 -6.484 -6.498 -6.508 -6.508 -6.508 -6.508 -6.488 -6.458 -6.418 -6.374 -6.334 -6.304 -6.274 -6.254 -6.254 -6.254 -6.274 -6.295 -6.315 -6.315 -6.315 -6.295 -6.285 -6.265 -6.255 -6.242 -6.222 -6.162 -6.072 -5.982 -5.902 -5.862 -5.852 -5.832 -5.782 -5.712 -5.662 -5.652 -5.672 -5.722 -5.762 -5.818 -5.858 -5.888 -5.898 -5.908 -5.918 -5.918 -5.898 -5.832 -5.712 -5.562 -5.402 -5.282 -5.212 -5.192 -5.192 -5.212 -5.262 -5.312 -5.342 -5.382 -5.462 -5.582 -5.682 -5.743 -5.773 -5.793 -5.813 -5.843 -5.883 -5.893 -5.883 -5.848 -5.808 -5.788 -5.768 -5.748 -5.718 -5.688 -5.648 -5.612 -5.562 -5.522 -5.482 -5.452 -5.442 -5.442 -5.442 -5.443 -5.423 -5.393 -5.363 -5.333 -5.313 -5.323 -5.333 -5.370 -5.400 -5.420 -5.430 -5.430 -5.430 -5.440 -5.450 -5.442 -5.402 -5.352 -5.282 -5.212 -5.142 -5.092 -5.032 -4.986
0.155 0.035 -0.195 -0.255 -0.325 -0.401 -0.471 -0.531 -0.561 -0.581 -0.591 -0.591 -0.601 -0.610 -0.640 -0.650 -0.660 -0.660 -0.650 -0.640 -0.640 -0.641 -0.641 -0.651 -0.651 -0.661 -0.661 -0.651 -0.641 -0.641 -0.651 -0.671 -0.691 -0.721 -0.761 -0.811 -0.871 -0.927 -0.987 -1.057 -1.117 -1.177 -1.217 -1.237 -1.257 -1.267 -1.267 -1.267 -1.277 -1.307 -1.347 -1.387 -1.427 -1.463 -1.503 -1.523 -1.553 -1.583 -1.603 -1.613 -1.603 -1.588 -1.578 -1.578 -1.608 -1.638 -1.668 -1.698 -1.738 -1.753 -1.773 -1.773 -1.783 -1.773 -1.763 -1.753 -1.733 -1.728 -1.708 -1.708 -1.698 -1.698 -1.708 -1.708 -1.718 -1.720 -1.740 -1.760 -1.780 -1.810 -1.840 -1.870 -1.900 -1.940 -1.960 -1.980 -1.990 -1.990 -1.990 -1.990 -1.990 -1.997 -2.017 -2.027 -2.047 -2.057 -2.077 -2.097 -2.117 -2.131 -2.141 -2.161 -2.171 -2.181 -2.191 -2.191 -2.201 -2.198 -2.208 -2.228 -2.238 -2.248 -2.268 -2.278 -2.288 -2.310 -2.320 -2.340 -2.360 -2.370 -2.380 -2.390 -2.390 -2.390 -2.390 -2.390 -2.380 -2.380 -2.380 -2.370 -2.370 -2.354 -2.344 -2.324 -2.304 -2.294 -2.274 -2.264 -2.234 -2.202 -2.162 -2.132 -2.112 -2.072 -2.042 -2.012 -2.002 -2.009 -2.029 -2.049 -2.069 -2.089 -2.099 -2.099 -2.099 -2.100 -2.110 -2.120 -2.140 -2.170 -2.200 -2.230 -2.270 -2.293 -2.323 -2.343 -2.373 -2.403 -2.443 -2.473 -2.493 -2.511 -2.531 -2.551 -2.581 -2.611 -2.631 -2.661 -2.681 -2.692 -2.712 -2.732 -2.752 -2.782 -2.812 -2.842 -2.882 -2.907 -2.937 -2.967 -2.997 -3.027 -3.057 -3.097 -3.137 -3.177 -3.207 -3.217 -3.217 -3.207 -3.187 -3.197 -3.247 -3.308 -3.368 -3.418 -3.448 -3.468 -3.498 -3.518 -3.548 -3.579 -3.599 -3.609 -3.629 -3.649 -3.689 -3.729 -3.769 -3.802 -3.832 -3.862 -3.872 -3.882 -3.902 -3.922 -3.952 -3.986 -4.016 -4.026 -4.036 -4.046 -4.076 -4.096 -4.126 -4.149 -4.159 -4.159 -4.159 -4.169 -4.199 -4.229 -4.259 -4.288 -4.308 -4.338 -4.378 -4.428 -4.468 -4.518 -4.558 -4.586 -4.606 -4.616 -4.616 -4.626 -4.626 -4.626 -4.636 -4.641 -4.651 -4.651 -4.651 -4.651 -4.641 -4.641 -4.641 -4.662 -4.682 -4.692 -4.692 -4.682 -4.672 -4.652 -4.652 -4.662 -4.712 -4.792 -4.872 -4.942 -4.982 -5.042 -5.142 -5.245 -5.335 -5.385 -5.395 -5.375 -5.365 -5.405 -5.525 -5.675 -5.835 -5.975 -6.085 -6.175 -6.245 -6.285 -6.315 -6.315 -6.295 -6.265 -6.225 -6.185 -6.135 -6.105 -6.085 -6.070 -6.070 -6.070 -6.070 -6.070 -6.070 -6.090 -6.110 -6.134 -6.154 -6.164 -6.164 -6.174 -6.194 -6.204 -6.234 -6.254 -6.284 -6.314 -6.354 -6.394 -6.434 -6.464 -6.494 -6.508 -6.518 -6.518 -6.518 -6.498 -6.478 -6.438 -6.408 -6.364 -6.334 -6.304 -6.274 -6.264 -6.264 -6.274 -6.284 -6.305 -6.315 -6.315 -6.315 -6.295 -6.285 -6.275 -6.285 -6.282 -6.272 -6.232 -6.172 -6.102 -6.042 -6.012 -6.002 -5.992 -5.962 -5.902 -5.842 -5.812 -5.812 -5.822 -5.842 -5.878 -5.908 -5.918 -5.908 -5.908 -5.898 -5.898 -5.878 -5.792 -5.652 -5.482 -5.342 -5.242 -5.222 -5.242 -5.282 -5.312 -5.342 -5.342 -5.322 -5.312 -5.372 -5.502 -5.652 -5.753 -5.813 -5.823 -5.813 -5.803 -5.803 -5.803 -5.793 -5.778 -5.758 -5.758 -5.758 -5.758 -5.738 -5.708 -5.668 -5.632 -5.582 -5.532 -5.492 -5.462 -5.452 -5.442 -5.442 -5.433 -5.413 -5.383 -5.353 -5.333 -5.323 -5.333 -5.353 -5.370 -5.400 -5.420 -5.440 -5.450 -5.450 -5.450 -5.440 -5.422 -5.372 -5.312 -5.242 -5.172 -5.112 -5.062 -5.012 -4.966
0.395 0.325 0.035 -0.155 -0.215 -0.271 -0.341 -0.401 -0.451 -0.481 -0.511 -0.521 -0.541 -0.560 -0.580 -0.610 -0.630 -0.630 -0.630 -0.630 -0.630 -0.631 -0.631 -0.631 -0.641 -0.641 -0.641 -0.641 -0.631 -0.631 -0.631 -0.651 -0.661 -0.681 -0.701 -0.741 -0.791 -0.837 -0.887 -0.947 -0.997 -1.047 -1.097 -1.127 -1.157 -1.167 -1.177 -1.177 -1.197 -1.227 -1.267 -1.307 -1.347 -1.383 -1.413 -1.443 -1.473 -1.493 -1.523 -1.533 -1.533 -1.518 -1.508 -1.508 -1.518 -1.538 -1.558 -1.578 -1.608 -1.643 -1.663 -1.673 -1.673 -1.673 -1.663 -1.663 -1.653 -1.638 -1.638 -1.628 -1.628 -1.628 -1.628 -1.638 -1.648 -1.660 -1.670 -1.700 -1.720 -1.750 -1.780 -1.820 -1.860 -1.890 -1.920 -1.940 -1.950 -1.950 -1.940 -1.930 -1.930 -1.937 -1.957 -1.967 -1.987 -1.997 -2.017 -2.037 -2.057 -2.071 -2.081 -2.101 -2.111 -2.121 -2.131 -2.131 -2.131 -2.138 -2.148 -2.168 -2.178 -2.198 -2.208 -2.228 -2.238 -2.250 -2.270 -2.290 -2.310 -2.320 -2.330 -2.340 -2.340 -2.340 -2.340 -2.340 -2.340 -2.330 -2.320 -2.320 -2.320 -2.314 -2.304 -2.294 -2.284 -2.274 -2.264 -2.254 -2.234 -2.192 -2.152 -2.122 -2.092 -2.052 -2.022 -2.012 -2.012 -2.039 -2.069 -2.099 -2.119 -2.139 -2.129 -2.129 -2.129 -2.130 -2.130 -2.130 -2.150 -2.180 -2.210 -2.250 -2.280 -2.303 -2.333 -2.353 -2.383 -2.413 -2.453 -2.473 -2.493 -2.501 -2.521 -2.541 -2.571 -2.611 -2.641 -2.661 -2.681 -2.702 -2.712 -2.722 -2.742 -2.762 -2.792 -2.822 -2.862 -2.897 -2.927 -2.957 -2.987 -3.007 -3.047 -3.077 -3.107 -3.137 -3.157 -3.167 -3.157 -3.147 -3.127 -3.147 -3.207 -3.278 -3.338 -3.388 -3.418 -3.438 -3.468 -3.488 -3.528 -3.549 -3.569 -3.579 -3.599 -3.629 -3.659 -3.699 -3.739 -3.772 -3.802 -3.822 -3.842 -3.852 -3.872 -3.892 -3.922 -3.956 -3.966 -3.986 -3.996 -4.016 -4.046 -4.076 -4.096 -4.119 -4.119 -4.119 -4.129 -4.139 -4.169 -4.209 -4.239 -4.268 -4.288 -4.328 -4.368 -4.418 -4.468 -4.508 -4.548 -4.576 -4.586 -4.586 -4.586 -4.596 -4.596 -4.606 -4.616 -4.621 -4.631 -4.631 -4.641 -4.641 -4.641 -4.641 -4.641 -4.642 -4.652 -4.662 -4.652 -4.642 -4.632 -4.632 -4.642 -4.672 -4.732 -4.812 -4.892 -4.942 -4.972 -5.012 -5.102 -5.215 -5.325 -5.395 -5.425 -5.425 -5.435 -5.495 -5.615 -5.765 -5.905 -6.025 -6.115 -6.195 -6.255 -6.295 -6.315 -6.315 -6.295 -6.265 -6.225 -6.185 -6.135 -6.105 -6.095 -6.090 -6.100 -6.100 -6.100 -6.100 -6.110 -6.120 -6.150 -6.174 -6.184 -6.194 -6.204 -6.214 -6.224 -6.244 -6.264 -6.284 -6.294 -6.314 -6.334 -6.374 -6.404 -6.454 -6.484 -6.518 -6.528 -6.528 -6.518 -6.488 -6.458 -6.428 -6.388 -6.354 -6.334 -6.304 -6.284 -6.274 -6.284 -6.284 -6.294 -6.305 -6.315 -6.315 -6.305 -6.285 -6.285 -6.295 -6.305 -6.322 -6.312 -6.282 -6.242 -6.192 -6.152 -6.122 -6.102 -6.082 -6.062 -6.022 -5.972 -5.932 -5.912 -5.912 -5.922 -5.938 -5.948 -5.938 -5.918 -5.898 -5.898 -5.898 -5.868 -5.782 -5.642 -5.472 -5.332 -5.272 -5.282 -5.342 -5.412 -5.452 -5.462 -5.422 -5.352 -5.312 -5.342 -5.472 -5.632 -5.783 -5.863 -5.873 -5.843 -5.793 -5.753 -5.733 -5.723 -5.708 -5.708 -5.728 -5.748 -5.758 -5.748 -5.718 -5.678 -5.632 -5.582 -5.532 -5.492 -5.462 -5.442 -5.442 -5.432 -5.423 -5.403 -5.383 -5.353 -5.343 -5.333 -5.343 -5.353 -5.380 -5.400 -5.420 -5.440 -5.450 -5.460 -5.460 -5.440 -5.402 -5.342 -5.272 -5.202 -5.142 -5.082 -5.032 -4.992 -4.946
0.835 0.405 0.335 0.165 0.085 -0.001 -0.201 -0.261 -0.311 -0.361 -0.401 -0.431 -0.461 -0.480 -0.510 -0.540 -0.570 -0.580 -0.590 -0.590 -0.590 -0.591 -0.601 -0.611 -0.621 -0.621 -0.621 -0.611 -0.611 -0.611 -0.621 -0.641 -0.651 -0.661 -0.681 -0.721 -0.761 -0.797 -0.837 -0.867 -0.897 -0.937 -0.987 -1.027 -1.057 -1.087 -1.107 -1.117 -1.137 -1.167 -1.207 -1.257 -1.297 -1.323 -1.343 -1.373 -1.393 -1.413 -1.433 -1.453 -1.463 -1.458 -1.458 -1.458 -1.458 -1.458 -1.468 -1.478 -1.498 -1.523 -1.553 -1.563 -1.563 -1.563 -1.563 -1.563 -1.563 -1.558 -1.558 -1.558 -1.558 -1.558 -1.568 -1.578 -1.588 -1.600 -1.620 -1.650 -1.670 -1.700 -1.730 -1.770 -1.810 -1.840 -1.870 -1.890 -1.900 -1.900 -1.890 -1.880 -1.880 -1.877 -1.887 -1.907 -1.917 -1.937 -1.957 -1.977 -1.997 -2.011 -2.031 -2.041 -2.051 -2.061 -2.071 -2.071 -2.081 -2.078 -2.088 -2.108 -2.128 -2.138 -2.158 -2.168 -2.188 -2.200 -2.220 -2.240 -2.260 -2.270 -2.280 -2.280 -2.280 -2.290 -2.290 -2.290 -2.280 -2.280 -2.270 -2.270 -2.270 -2.264 -2.264 -2.254 -2.254 -2.254 -2.254 -2.244 -2.214 -2.182 -2.132 -2.092 -2.062 -2.032 -2.012 -2.022 -2.042 -2.069 -2.109 -2.139 -2.159 -2.159 -2.159 -2.149 -2.149 -2.150 -2.140 -2.140 -2.160 -2.200 -2.230 -2.270 -2.310 -2.333 -2.353 -2.373 -2.403 -2.433 -2.453 -2.473 -2.483 -2.491 -2.511 -2.531 -2.561 -2.601 -2.631 -2.651 -2.671 -2.692 -2.702 -2.712 -2.722 -2.732 -2.752 -2.792 -2.832 -2.867 -2.907 -2.937 -2.967 -2.997 -3.027 -3.057 -3.077 -3.097 -3.107 -3.117 -3.117 -3.097 -3.087 -3.107 -3.167 -3.238 -3.308 -3.348 -3.378 -3.408 -3.428 -3.458 -3.488 -3.519 -3.539 -3.549 -3.569 -3.599 -3.639 -3.679 -3.719 -3.752 -3.782 -3.802 -3.822 -3.832 -3.852 -3.872 -3.902 -3.926 -3.936 -3.946 -3.966 -3.996 -4.016 -4.046 -4.076 -4.089 -4.089 -4.089 -4.099 -4.119 -4.159 -4.189 -4.219 -4.248 -4.278 -4.318 -4.368 -4.418 -4.458 -4.498 -4.538 -4.556 -4.566 -4.566 -4.566 -4.566 -4.576 -4.586 -4.596 -4.611 -4.611 -4.621 -4.621 -4.631 -4.631 -4.641 -4.641 -4.642 -4.642 -4.632 -4.622 -4.602 -4.602 -4.622 -4.652 -4.692 -4.762 -4.842 -4.922 -4.962 -4.982 -5.012 -5.082 -5.205 -5.325 -5.415 -5.465 -5.495 -5.525 -5.605 -5.715 -5.835 -5.955 -6.045 -6.125 -6.195 -6.245 -6.285 -6.305 -6.305 -6.285 -6.255 -6.215 -6.175 -6.135 -6.115 -6.105 -6.110 -6.120 -6.130 -6.130 -6.140 -6.140 -6.160 -6.190 -6.204 -6.214 -6.224 -6.234 -6.244 -6.264 -6.274 -6.284 -6.294 -6.304 -6.304 -6.314 -6.334 -6.374 -6.424 -6.464 -6.508 -6.518 -6.518 -6.508 -6.478 -6.438 -6.408 -6.378 -6.354 -6.334 -6.314 -6.304 -6.294 -6.304 -6.304 -6.304 -6.315 -6.305 -6.305 -6.295 -6.285 -6.295 -6.305 -6.335 -6.342 -6.342 -6.312 -6.282 -6.232 -6.192 -6.152 -6.122 -6.102 -6.092 -6.072 -6.032 -6.002 -5.982 -5.982 -5.982 -5.988 -5.988 -5.968 -5.938 -5.908 -5.908 -5.908 -5.898 -5.822 -5.692 -5.532 -5.402 -5.352 -5.392 -5.482 -5.562 -5.592 -5.572 -5.502 -5.422 -5.362 -5.382 -5.482 -5.642 -5.793 -5.893 -5.913 -5.863 -5.793 -5.733 -5.693 -5.673 -5.658 -5.668 -5.698 -5.738 -5.748 -5.748 -5.708 -5.668 -5.622 -5.572 -5.522 -5.482 -5.462 -5.442 -5.432 -5.432 -5.423 -5.403 -5.373 -5.353 -5.343 -5.333 -5.343 -5.353 -5.380 -5.400 -5.420 -5.440 -5.450 -5.460 -5.460 -5.430 -5.372 -5.312 -5.232 -5.162 -5.102 -5.052 -5.012 -4.962 -4.926
1.165 1.035 0.595 0.485 0.465 0.229 0.139 -0.141 -0.181 -0.231 -0.281 -0.321 -0.351 -0.370 -0.410 -0.440 -0.480 -0.500 -0.510 -0.510 -0.520 -0.521 -0.541 -0.561 -0.571 -0.591 -0.591 -0.581 -0.581 -0.581 -0.601 -0.621 -0.641 -0.661 -0.681 -0.721 -0.761 -0.787 -0.807 -0.827 -0.837 -0.867 -0.897 -0.947 -0.987 -1.027 -1.047 -1.077 -1.097 -1.117 -1.147 -1.187 -1.227 -1.253 -1.273 -1.293 -1.303 -1.323 -1.343 -1.363 -1.373 -1.388 -1.398 -1.398 -1.398 -1.398 -1.388 -1.378 -1.388 -1.413 -1.433 -1.453 -1.453 -1.453 -1.453 -1.453 -1.463 -1.468 -1.478 -1.488 -1.488 -1.498 -1.508 -1.528 -1.538 -1.560 -1.580 -1.610 -1.640 -1.660 -1.690 -1.730 -1.760 -1.800 -1.820 -1.840 -1.850 -1.850 -1.840 -1.830 -1.820 -1.827 -1.827 -1.847 -1.857 -1.877 -1.897 -1.917 -1.937 -1.951 -1.971 -1.981 -1.991 -2.001 -2.001 -2.011 -2.021 -2.028 -2.038 -2.058 -2.068 -2.088 -2.108 -2.118 -2.138 -2.150 -2.170 -2.180 -2.200 -2.210 -2.220 -2.230 -2.230 -2.230 -2.230 -2.230 -2.230 -2.230 -2.220 -2.220 -2.220 -2.224 -2.224 -2.224 -2.234 -2.244 -2.244 -2.224 -2.194 -2.152 -2.102 -2.052 -2.022 -2.012 -2.012 -2.022 -2.062 -2.099 -2.129 -2.159 -2.169 -2.169 -2.169 -2.169 -2.169 -2.160 -2.160 -2.170 -2.190 -2.230 -2.280 -2.320 -2.350 -2.373 -2.383 -2.393 -2.413 -2.443 -2.463 -2.473 -2.483 -2.481 -2.491 -2.511 -2.541 -2.571 -2.601 -2.631 -2.651 -2.672 -2.682 -2.692 -2.702 -2.702 -2.712 -2.742 -2.782 -2.827 -2.867 -2.907 -2.937 -2.967 -2.997 -3.017 -3.037 -3.047 -3.067 -3.077 -3.077 -3.067 -3.057 -3.077 -3.147 -3.218 -3.268 -3.308 -3.338 -3.358 -3.378 -3.408 -3.438 -3.469 -3.499 -3.519 -3.549 -3.579 -3.619 -3.659 -3.699 -3.732 -3.752 -3.782 -3.802 -3.812 -3.832 -3.852 -3.882 -3.896 -3.906 -3.926 -3.946 -3.976 -4.006 -4.026 -4.046 -4.059 -4.059 -4.069 -4.089 -4.109 -4.149 -4.179 -4.219 -4.248 -4.288 -4.328 -4.368 -4.408 -4.448 -4.488 -4.508 -4.526 -4.536 -4.546 -4.546 -4.546 -4.556 -4.566 -4.576 -4.591 -4.591 -4.601 -4.611 -4.621 -4.631 -4.651 -4.651 -4.652 -4.642 -4.622 -4.592 -4.582 -4.602 -4.632 -4.672 -4.732 -4.802 -4.882 -4.952 -4.992 -5.012 -5.042 -5.112 -5.225 -5.345 -5.435 -5.505 -5.565 -5.625 -5.705 -5.805 -5.895 -5.985 -6.055 -6.115 -6.165 -6.215 -6.255 -6.275 -6.275 -6.255 -6.225 -6.195 -6.155 -6.135 -6.115 -6.115 -6.130 -6.140 -6.150 -6.150 -6.160 -6.170 -6.190 -6.220 -6.234 -6.244 -6.244 -6.254 -6.274 -6.284 -6.294 -6.304 -6.304 -6.304 -6.294 -6.294 -6.314 -6.344 -6.394 -6.434 -6.478 -6.488 -6.488 -6.478 -6.448 -6.418 -6.388 -6.378 -6.364 -6.344 -6.334 -6.324 -6.314 -6.324 -6.324 -6.324 -6.315 -6.315 -6.305 -6.295 -6.295 -6.295 -6.315 -6.335 -6.352 -6.342 -6.322 -6.292 -6.242 -6.192 -6.142 -6.092 -6.072 -6.072 -6.062 -6.052 -6.032 -6.022 -6.032 -6.042 -6.038 -6.028 -6.008 -5.978 -5.948 -5.938 -5.948 -5.948 -5.902 -5.782 -5.632 -5.512 -5.462 -5.512 -5.612 -5.692 -5.692 -5.642 -5.562 -5.492 -5.452 -5.452 -5.532 -5.662 -5.803 -5.893 -5.913 -5.873 -5.803 -5.733 -5.693 -5.663 -5.648 -5.658 -5.688 -5.718 -5.738 -5.728 -5.698 -5.648 -5.592 -5.552 -5.512 -5.472 -5.452 -5.442 -5.432 -5.422 -5.413 -5.393 -5.373 -5.353 -5.343 -5.343 -5.343 -5.363 -5.390 -5.410 -5.420 -5.440 -5.450 -5.460 -5.450 -5.410 -5.342 -5.272 -5.192 -5.132 -5.072 -5.022 -4.982 -4.942 -4.906
1.205 1.345 1.255 0.815 0.545 0.499 0.349 0.359 0.059 0.139 -0.161 -0.201 -0.231 -0.260 -0.290 -0.320 -0.360 -0.390 -0.400 -0.410 -0.430 -0.441 -0.461 -0.481 -0.511 -0.531 -0.551 -0.551 -0.551 -0.561 -0.571 -0.591 -0.621 -0.641 -0.671 -0.711 -0.741 -0.777 -0.797 -0.807 -0.817 -0.827 -0.857 -0.897 -0.937 -0.977 -1.007 -1.027 -1.037 -1.057 -1.077 -1.117 -1.147 -1.173 -1.193 -1.203 -1.213 -1.223 -1.243 -1.263 -1.283 -1.308 -1.318 -1.328 -1.338 -1.338 -1.328 -1.308 -1.298 -1.303 -1.313 -1.333 -1.343 -1.353 -1.353 -1.353 -1.363 -1.378 -1.398 -1.408 -1.428 -1.438 -1.458 -1.478 -1.498 -1.530 -1.550 -1.580 -1.600 -1.630 -1.660 -1.690 -1.720 -1.750 -1.770 -1.790 -1.790 -1.790 -1.790 -1.780 -1.780 -1.777 -1.777 -1.787 -1.797 -1.817 -1.837 -1.847 -1.867 -1.891 -1.911 -1.921 -1.931 -1.931 -1.941 -1.951 -1.961 -1.968 -1.988 -1.998 -2.018 -2.038 -2.058 -2.068 -2.088 -2.100 -2.110 -2.120 -2.140 -2.150 -2.160 -2.160 -2.170 -2.170 -2.180 -2.180 -2.180 -2.170 -2.170 -2.170 -2.180 -2.184 -2.194 -2.204 -2.214 -2.224 -2.224 -2.204 -2.174 -2.122 -2.062 -2.012 -1.992 -1.982 -2.002 -2.022 -2.062 -2.099 -2.129 -2.149 -2.169 -2.179 -2.189 -2.189 -2.189 -2.180 -2.190 -2.210 -2.250 -2.290 -2.340 -2.380 -2.410 -2.413 -2.413 -2.413 -2.423 -2.443 -2.463 -2.463 -2.473 -2.471 -2.471 -2.491 -2.511 -2.541 -2.571 -2.601 -2.631 -2.652 -2.662 -2.672 -2.672 -2.672 -2.672 -2.692 -2.722 -2.767 -2.817 -2.867 -2.907 -2.937 -2.957 -2.967 -2.977 -2.997 -3.017 -3.037 -3.047 -3.037 -3.027 -3.057 -3.117 -3.178 -3.228 -3.268 -3.288 -3.308 -3.328 -3.358 -3.388 -3.419 -3.459 -3.489 -3.519 -3.559 -3.599 -3.639 -3.679 -3.712 -3.742 -3.762 -3.782 -3.802 -3.822 -3.832 -3.862 -3.876 -3.886 -3.896 -3.916 -3.946 -3.976 -4.006 -4.016 -4.029 -4.039 -4.059 -4.079 -4.109 -4.149 -4.179 -4.219 -4.248 -4.288 -4.328 -4.368 -4.408 -4.438 -4.458 -4.478 -4.496 -4.506 -4.516 -4.516 -4.516 -4.526 -4.536 -4.556 -4.561 -4.571 -4.571 -4.581 -4.601 -4.631 -4.651 -4.671 -4.662 -4.642 -4.602 -4.582 -4.572 -4.602 -4.652 -4.712 -4.772 -4.842 -4.912 -4.982 -5.032 -5.062 -5.102 -5.182 -5.285 -5.385 -5.475 -5.555 -5.635 -5.705 -5.785 -5.865 -5.925 -5.985 -6.025 -6.075 -6.115 -6.165 -6.205 -6.225 -6.235 -6.225 -6.195 -6.175 -6.145 -6.135 -6.125 -6.135 -6.140 -6.150 -6.160 -6.170 -6.180 -6.200 -6.220 -6.240 -6.254 -6.254 -6.264 -6.264 -6.284 -6.294 -6.304 -6.314 -6.304 -6.294 -6.294 -6.294 -6.304 -6.324 -6.364 -6.404 -6.438 -6.448 -6.448 -6.438 -6.418 -6.398 -6.378 -6.378 -6.374 -6.364 -6.354 -6.344 -6.344 -6.344 -6.334 -6.334 -6.325 -6.325 -6.315 -6.305 -6.305 -6.305 -6.325 -6.345 -6.352 -6.342 -6.322 -6.292 -6.242 -6.172 -6.112 -6.052 -6.022 -6.032 -6.052 -6.062 -6.062 -6.062 -6.082 -6.092 -6.098 -6.078 -6.058 -6.028 -6.008 -6.008 -6.018 -6.038 -6.002 -5.902 -5.762 -5.632 -5.582 -5.622 -5.702 -5.752 -5.732 -5.672 -5.612 -5.572 -5.552 -5.552 -5.602 -5.692 -5.803 -5.883 -5.913 -5.883 -5.823 -5.763 -5.723 -5.693 -5.678 -5.678 -5.698 -5.718 -5.728 -5.718 -5.678 -5.628 -5.572 -5.532 -5.492 -5.462 -5.452 -5.442 -5.432 -5.422 -5.413 -5.393 -5.373 -5.353 -5.343 -5.343 -5.343 -5.363 -5.390 -5.420 -5.430 -5.440 -5.450 -5.450 -5.430 -5.380 -5.312 -5.232 -5.162 -5.092 -5.042 -5.002 -4.962 -4.922 -4.886
1.485 1.365 1.285 1.405 1.325 0.859 0.849 0.499 0.449 0.339 0.329 0.169 0.059 -0.150 -0.180 -0.210 -0.240 -0.260 -0.280 -0.300 -0.320 -0.341 -0.371 -0.401 -0.431 -0.461 -0.491 -0.501 -0.521 -0.531 -0.551 -0.571 -0.591 -0.621 -0.651 -0.681 -0.721 -0.757 -0.777 -0.797 -0.807 -0.817 -0.827 -0.867 -0.907 -0.937 -0.967 -0.977 -0.987 -0.997 -1.007 -1.037 -1.057 -1.083 -1.103 -1.113 -1.123 -1.133 -1.153 -1.173 -1.193 -1.218 -1.238 -1.258 -1.268 -1.278 -1.278 -1.258 -1.238 -1.213 -1.203 -1.213 -1.233 -1.243 -1.253 -1.263 -1.273 -1.288 -1.308 -1.328 -1.358 -1.378 -1.398 -1.428 -1.458 -1.490 -1.520 -1.540 -1.570 -1.590 -1.620 -1.650 -1.670 -1.700 -1.720 -1.730 -1.740 -1.740 -1.740 -1.740 -1.740 -1.737 -1.737 -1.737 -1.747 -1.757 -1.777 -1.787 -1.807 -1.821 -1.841 -1.861 -1.871 -1.871 -1.881 -1.891 -1.901 -1.918 -1.928 -1.948 -1.968 -1.988 -2.008 -2.018 -2.038 -2.050 -2.060 -2.070 -2.080 -2.090 -2.090 -2.100 -2.110 -2.110 -2.120 -2.120 -2.120 -2.120 -2.120 -2.120 -2.130 -2.144 -2.164 -2.174 -2.194 -2.204 -2.204 -2.184 -2.144 -2.092 -2.032 -1.992 -1.962 -1.962 -1.982 -2.002 -2.042 -2.079 -2.109 -2.139 -2.169 -2.189 -2.199 -2.209 -2.209 -2.210 -2.220 -2.260 -2.300 -2.350 -2.390 -2.430 -2.450 -2.453 -2.443 -2.433 -2.443 -2.453 -2.463 -2.463 -2.463 -2.461 -2.451 -2.461 -2.481 -2.511 -2.551 -2.581 -2.611 -2.622 -2.642 -2.642 -2.642 -2.632 -2.632 -2.642 -2.672 -2.717 -2.777 -2.827 -2.857 -2.877 -2.887 -2.897 -2.917 -2.927 -2.957 -2.987 -3.007 -2.997 -2.997 -3.027 -3.077 -3.138 -3.188 -3.208 -3.238 -3.258 -3.278 -3.308 -3.338 -3.379 -3.419 -3.449 -3.489 -3.529 -3.569 -3.609 -3.649 -3.682 -3.712 -3.742 -3.762 -3.782 -3.792 -3.812 -3.832 -3.846 -3.856 -3.876 -3.896 -3.926 -3.956 -3.976 -3.986 -3.999 -4.019 -4.049 -4.079 -4.109 -4.139 -4.179 -4.209 -4.248 -4.288 -4.318 -4.358 -4.388 -4.418 -4.438 -4.448 -4.456 -4.476 -4.486 -4.486 -4.486 -4.496 -4.506 -4.516 -4.521 -4.531 -4.541 -4.561 -4.591 -4.621 -4.651 -4.671 -4.672 -4.642 -4.592 -4.572 -4.582 -4.622 -4.682 -4.742 -4.812 -4.882 -4.952 -5.012 -5.072 -5.132 -5.192 -5.272 -5.365 -5.445 -5.525 -5.605 -5.685 -5.755 -5.835 -5.885 -5.925 -5.945 -5.975 -6.005 -6.045 -6.085 -6.135 -6.165 -6.175 -6.175 -6.165 -6.155 -6.145 -6.135 -6.135 -6.145 -6.150 -6.150 -6.160 -6.170 -6.190 -6.210 -6.230 -6.250 -6.264 -6.264 -6.264 -6.264 -6.284 -6.294 -6.314 -6.314 -6.314 -6.304 -6.294 -6.294 -6.304 -6.334 -6.364 -6.384 -6.398 -6.408 -6.408 -6.398 -6.388 -6.378 -6.378 -6.378 -6.384 -6.384 -6.384 -6.374 -6.364 -6.354 -6.354 -6.344 -6.345 -6.335 -6.325 -6.325 -6.325 -6.325 -6.335 -6.345 -6.352 -6.352 -6.332 -6.302 -6.252 -6.182 -6.102 -6.032 -6.002 -6.022 -6.062 -6.092 -6.102 -6.122 -6.142 -6.162 -6.158 -6.138 -6.118 -6.108 -6.088 -6.088 -6.098 -6.118 -6.102 -6.022 -5.892 -5.762 -5.692 -5.702 -5.742 -5.752 -5.732 -5.692 -5.672 -5.672 -5.672 -5.662 -5.662 -5.722 -5.813 -5.873 -5.903 -5.883 -5.843 -5.793 -5.763 -5.733 -5.718 -5.708 -5.718 -5.728 -5.728 -5.708 -5.668 -5.608 -5.552 -5.512 -5.482 -5.462 -5.442 -5.442 -5.432 -5.422 -5.403 -5.383 -5.373 -5.353 -5.343 -5.343 -5.353 -5.373 -5.400 -5.420 -5.440 -5.450 -5.450 -5.450 -5.410 -5.350 -5.282 -5.202 -5.132 -5.072 -5.022 -4.982 -4.942 -4.902 -4.866
1.672 1.612 1.502 1.372 1.262 1.391 1.381 0.881 0.811 0.451 0.431 0.371 0.301 0.378 0.138 0.038 -0.132 -0.152 0.218 0.128 -0.212 -0.248 -0.278 -0.308 -0.348 -0.378 -0.418 -0.438 -0.468 -0.498 -0.518 -0.548 -0.568 -0.598 -0.628 -0.658 -0.698 -0.731 -0.761 -0.781 -0.791 -0.801 -0.811 -0.841 -0.881 -0.917 -0.947 -0.957 -0.957 -0.957 -0.957 -0.967 -0.987 -1.011 -1.021 -1.041 -1.051 -1.061 -1.071 -1.091 -1.111 -1.132 -1.162 -1.182 -1.202 -1.222 -1.232 -1.222 -1.192 -1.153 -1.133 -1.133 -1.133 -1.153 -1.173 -1.183 -1.193 -1.200 -1.220 -1.250 -1.280 -1.310 -1.340 -1.370 -1.410 -1.443 -1.483 -1.503 -1.533 -1.563 -1.583 -1.603 -1.623 -1.640 -1.660 -1.670 -1.680 -1.690 -1.690 -1.690 -1.700 -1.709 -1.709 -1.709 -1.709 -1.719 -1.719 -1.729 -1.749 -1.765 -1.785 -1.805 -1.805 -1.815 -1.825 -1.835 -1.845 -1.861 -1.871 -1.891 -1.911 -1.931 -1.951 -1.971 -1.991 -2.005 -2.015 -2.015 -2.025 -2.025 -2.035 -2.035 -2.045 -2.051 -2.061 -2.061 -2.061 -2.061 -2.061 -2.071 -2.091 -2.111 -2.131 -2.151 -2.171 -2.181 -2.181 -2.161 -2.121 -2.070 -2.010 -1.960 -1.940 -1.940 -1.950 -1.970 -2.010 -2.055 -2.095 -2.135 -2.165 -2.195 -2.215 -2.225 -2.235 -2.246 -2.266 -2.306 -2.356 -2.396 -2.436 -2.466 -2.476 -2.476 -2.466 -2.456 -2.456 -2.466 -2.466 -2.466 -2.466 -2.449 -2.439 -2.439 -2.449 -2.479 -2.519 -2.559 -2.579 -2.602 -2.612 -2.612 -2.612 -2.602 -2.602 -2.612 -2.632 -2.674 -2.724 -2.774 -2.794 -2.804 -2.814 -2.824 -2.844 -2.870 -2.900 -2.930 -2.940 -2.950 -2.950 -2.980 -3.030 -3.081 -3.121 -3.151 -3.181 -3.201 -3.231 -3.261 -3.301 -3.338 -3.378 -3.408 -3.448 -3.488 -3.528 -3.568 -3.608 -3.643 -3.683 -3.713 -3.733 -3.753 -3.763 -3.783 -3.803 -3.820 -3.840 -3.860 -3.880 -3.910 -3.930 -3.940 -3.960 -3.977 -4.007 -4.037 -4.067 -4.097 -4.137 -4.167 -4.207 -4.242 -4.282 -4.312 -4.342 -4.372 -4.392 -4.402 -4.412 -4.417 -4.427 -4.437 -4.437 -4.437 -4.447 -4.457 -4.467 -4.483 -4.493 -4.513 -4.533 -4.563 -4.603 -4.643 -4.663 -4.653 -4.623 -4.583 -4.573 -4.593 -4.653 -4.723 -4.793 -4.856 -4.926 -4.986 -5.056 -5.126 -5.196 -5.266 -5.356 -5.431 -5.511 -5.571 -5.631 -5.701 -5.771 -5.821 -5.861 -5.879 -5.889 -5.899 -5.919 -5.949 -5.999 -6.049 -6.089 -6.114 -6.124 -6.134 -6.134 -6.144 -6.144 -6.144 -6.144 -6.151 -6.151 -6.161 -6.171 -6.191 -6.211 -6.231 -6.251 -6.255 -6.255 -6.255 -6.265 -6.275 -6.295 -6.305 -6.315 -6.319 -6.309 -6.299 -6.309 -6.319 -6.349 -6.369 -6.379 -6.388 -6.388 -6.388 -6.378 -6.378 -6.368 -6.368 -6.378 -6.388 -6.398 -6.398 -6.398 -6.388 -6.368 -6.358 -6.358 -6.357 -6.347 -6.347 -6.347 -6.347 -6.347 -6.347 -6.357 -6.366 -6.376 -6.376 -6.346 -6.296 -6.216 -6.126 -6.056 -6.015 -6.045 -6.095 -6.145 -6.175 -6.195 -6.215 -6.225 -6.225 -6.205 -6.195 -6.175 -6.165 -6.165 -6.175 -6.195 -6.191 -6.131 -6.021 -5.901 -5.811 -5.771 -5.751 -5.741 -5.730 -5.730 -5.750 -5.780 -5.780 -5.750 -5.720 -5.750 -5.799 -5.859 -5.879 -5.869 -5.849 -5.809 -5.779 -5.759 -5.743 -5.733 -5.733 -5.733 -5.733 -5.703 -5.653 -5.593 -5.534 -5.494 -5.474 -5.454 -5.454 -5.444 -5.444 -5.424 -5.405 -5.395 -5.375 -5.365 -5.355 -5.345 -5.355 -5.375 -5.395 -5.415 -5.435 -5.445 -5.445 -5.425 -5.385 -5.315 -5.244 -5.164 -5.104 -5.044 -4.994 -4.954 -4.924 -4.884 -4.850
1.812 1.892 1.682 1.692 1.462 1.321 1.231 1.381 1.351 1.271 0.931 0.551 0.631 0.398 0.378 0.128 0.238 0.108 0.118 0.168 -0.122 -0.148 0.142 -0.218 -0.248 -0.288 -0.328 -0.368 -0.408 -0.438 -0.478 -0.518 -0.548 -0.588 -0.618 -0.648 -0.688 -0.721 -0.751 -0.761 -0.781 -0.791 -0.811 -0.841 -0.871 -0.917 -0.937 -0.947 -0.947 -0.927 -0.917 -0.917 -0.927 -0.941 -0.951 -0.971 -0.981 -1.001 -1.011 -1.031 -1.051 -1.072 -1.092 -1.112 -1.142 -1.172 -1.182 -1.182 -1.152 -1.123 -1.093 -1.073 -1.063 -1.073 -1.093 -1.123 -1.133 -1.150 -1.160 -1.190 -1.220 -1.250 -1.290 -1.320 -1.360 -1.403 -1.443 -1.473 -1.493 -1.513 -1.533 -1.553 -1.563 -1.580 -1.590 -1.610 -1.620 -1.630 -1.640 -1.650 -1.660 -1.679 -1.679 -1.679 -1.679 -1.679 -1.679 -1.689 -1.699 -1.715 -1.735 -1.745 -1.745 -1.755 -1.765 -1.775 -1.795 -1.801 -1.821 -1.841 -1.861 -1.881 -1.901 -1.921 -1.941 -1.955 -1.965 -1.965 -1.975 -1.975 -1.975 -1.975 -1.985 -1.991 -1.991 -2.001 -2.001 -2.011 -2.011 -2.031 -2.051 -2.091 -2.121 -2.141 -2.161 -2.171 -2.161 -2.141 -2.101 -2.050 -1.990 -1.940 -1.910 -1.910 -1.920 -1.940 -1.980 -2.035 -2.095 -2.145 -2.185 -2.205 -2.225 -2.245 -2.265 -2.286 -2.306 -2.346 -2.386 -2.426 -2.456 -2.476 -2.496 -2.496 -2.486 -2.476 -2.476 -2.486 -2.496 -2.486 -2.466 -2.439 -2.429 -2.419 -2.439 -2.469 -2.509 -2.539 -2.559 -2.572 -2.582 -2.582 -2.582 -2.582 -2.582 -2.582 -2.612 -2.654 -2.694 -2.724 -2.744 -2.744 -2.754 -2.764 -2.784 -2.810 -2.840 -2.860 -2.880 -2.890 -2.900 -2.930 -2.970 -3.011 -3.041 -3.081 -3.111 -3.151 -3.191 -3.231 -3.261 -3.298 -3.328 -3.368 -3.408 -3.438 -3.478 -3.508 -3.548 -3.593 -3.643 -3.683 -3.703 -3.713 -3.723 -3.743 -3.763 -3.800 -3.820 -3.840 -3.870 -3.880 -3.900 -3.920 -3.940 -3.967 -3.997 -4.027 -4.057 -4.087 -4.127 -4.157 -4.197 -4.232 -4.262 -4.302 -4.332 -4.352 -4.372 -4.382 -4.382 -4.387 -4.377 -4.377 -4.377 -4.387 -4.397 -4.407 -4.427 -4.453 -4.473 -4.503 -4.523 -4.563 -4.593 -4.623 -4.643 -4.633 -4.613 -4.583 -4.583 -4.623 -4.693 -4.763 -4.833 -4.906 -4.966 -5.026 -5.096 -5.166 -5.246 -5.326 -5.416 -5.491 -5.551 -5.601 -5.651 -5.691 -5.741 -5.781 -5.801 -5.809 -5.809 -5.809 -5.819 -5.849 -5.889 -5.949 -5.999 -6.034 -6.064 -6.084 -6.104 -6.124 -6.134 -6.134 -6.134 -6.141 -6.151 -6.161 -6.171 -6.191 -6.211 -6.231 -6.251 -6.255 -6.245 -6.245 -6.255 -6.255 -6.275 -6.295 -6.305 -6.309 -6.309 -6.299 -6.309 -6.329 -6.359 -6.369 -6.379 -6.378 -6.378 -6.368 -6.368 -6.368 -6.358 -6.368 -6.378 -6.398 -6.408 -6.418 -6.418 -6.398 -6.388 -6.368 -6.368 -6.367 -6.367 -6.357 -6.357 -6.357 -6.367 -6.367 -6.377 -6.396 -6.416 -6.416 -6.396 -6.356 -6.286 -6.196 -6.116 -6.085 -6.115 -6.175 -6.225 -6.255 -6.275 -6.285 -6.285 -6.275 -6.265 -6.265 -6.255 -6.245 -6.235 -6.235 -6.245 -6.251 -6.211 -6.131 -6.031 -5.931 -5.861 -5.801 -5.761 -5.760 -5.790 -5.840 -5.870 -5.850 -5.800 -5.750 -5.750 -5.779 -5.829 -5.849 -5.849 -5.839 -5.819 -5.789 -5.769 -5.753 -5.743 -5.733 -5.733 -5.723 -5.683 -5.633 -5.573 -5.524 -5.494 -5.474 -5.464 -5.464 -5.464 -5.454 -5.444 -5.425 -5.405 -5.385 -5.375 -5.365 -5.365 -5.365 -5.375 -5.395 -5.405 -5.415 -5.435 -5.425 -5.405 -5.345 -5.285 -5.204 -5.134 -5.074 -5.024 -4.974 -4.934 -4.904 -4.864 -4.830
1.892 1.902 1.812 1.702 1.622 1.561 1.461 1.351 1.281 1.451 1.461 1.291 0.861 0.598 0.528 0.578 0.498 0.218 0.408 0.348 0.568 0.402 0.152 -0.128 0.172 -0.198 -0.238 -0.278 -0.318 -0.368 -0.418 -0.468 -0.518 -0.568 -0.608 -0.648 -0.688 -0.721 -0.741 -0.761 -0.781 -0.811 -0.831 -0.861 -0.901 -0.927 -0.947 -0.957 -0.947 -0.917 -0.897 -0.877 -0.877 -0.881 -0.891 -0.911 -0.931 -0.951 -0.961 -0.981 -1.001 -1.022 -1.042 -1.062 -1.082 -1.112 -1.132 -1.132 -1.112 -1.083 -1.053 -1.023 -1.023 -1.033 -1.053 -1.093 -1.113 -1.120 -1.130 -1.150 -1.180 -1.210 -1.240 -1.270 -1.320 -1.363 -1.403 -1.423 -1.443 -1.453 -1.473 -1.483 -1.493 -1.510 -1.520 -1.540 -1.550 -1.570 -1.590 -1.610 -1.630 -1.639 -1.649 -1.649 -1.649 -1.649 -1.649 -1.659 -1.669 -1.675 -1.685 -1.685 -1.695 -1.695 -1.715 -1.725 -1.735 -1.751 -1.771 -1.781 -1.801 -1.831 -1.851 -1.871 -1.881 -1.895 -1.905 -1.915 -1.925 -1.925 -1.925 -1.925 -1.925 -1.921 -1.931 -1.941 -1.941 -1.951 -1.961 -1.991 -2.021 -2.061 -2.101 -2.131 -2.151 -2.151 -2.151 -2.131 -2.081 -2.030 -1.970 -1.920 -1.890 -1.880 -1.890 -1.920 -1.960 -2.025 -2.095 -2.155 -2.195 -2.235 -2.255 -2.265 -2.285 -2.306 -2.326 -2.356 -2.386 -2.426 -2.456 -2.486 -2.496 -2.506 -2.506 -2.506 -2.506 -2.516 -2.516 -2.506 -2.476 -2.449 -2.429 -2.419 -2.429 -2.459 -2.499 -2.529 -2.549 -2.562 -2.562 -2.572 -2.562 -2.562 -2.562 -2.572 -2.602 -2.634 -2.674 -2.704 -2.714 -2.714 -2.714 -2.724 -2.734 -2.760 -2.790 -2.810 -2.820 -2.840 -2.860 -2.880 -2.910 -2.931 -2.961 -3.001 -3.051 -3.101 -3.151 -3.191 -3.221 -3.248 -3.278 -3.308 -3.348 -3.388 -3.418 -3.458 -3.488 -3.533 -3.593 -3.633 -3.663 -3.673 -3.683 -3.693 -3.723 -3.760 -3.790 -3.820 -3.840 -3.860 -3.870 -3.900 -3.930 -3.967 -3.997 -4.027 -4.057 -4.087 -4.117 -4.157 -4.187 -4.222 -4.252 -4.292 -4.322 -4.352 -4.372 -4.372 -4.362 -4.357 -4.337 -4.327 -4.327 -4.337 -4.357 -4.387 -4.417 -4.443 -4.473 -4.503 -4.533 -4.563 -4.603 -4.623 -4.633 -4.633 -4.613 -4.613 -4.623 -4.673 -4.733 -4.813 -4.883 -4.946 -5.006 -5.076 -5.146 -5.216 -5.296 -5.386 -5.466 -5.531 -5.581 -5.611 -5.631 -5.651 -5.671 -5.701 -5.711 -5.719 -5.719 -5.719 -5.729 -5.759 -5.799 -5.859 -5.919 -5.964 -6.004 -6.034 -6.074 -6.104 -6.124 -6.124 -6.124 -6.131 -6.141 -6.151 -6.171 -6.181 -6.211 -6.231 -6.241 -6.245 -6.245 -6.245 -6.245 -6.245 -6.255 -6.275 -6.285 -6.299 -6.299 -6.299 -6.309 -6.329 -6.359 -6.369 -6.379 -6.378 -6.368 -6.358 -6.358 -6.348 -6.348 -6.358 -6.368 -6.388 -6.418 -6.428 -6.428 -6.408 -6.398 -6.378 -6.368 -6.367 -6.367 -6.367 -6.367 -6.367 -6.377 -6.377 -6.397 -6.416 -6.436 -6.456 -6.446 -6.416 -6.356 -6.286 -6.226 -6.195 -6.215 -6.275 -6.315 -6.335 -6.335 -6.335 -6.325 -6.315 -6.305 -6.305 -6.305 -6.305 -6.295 -6.285 -6.285 -6.291 -6.281 -6.231 -6.161 -6.071 -5.971 -5.891 -5.841 -5.840 -5.870 -5.900 -5.910 -5.880 -5.810 -5.740 -5.720 -5.749 -5.789 -5.819 -5.839 -5.839 -5.819 -5.799 -5.779 -5.753 -5.733 -5.723 -5.713 -5.693 -5.653 -5.603 -5.553 -5.514 -5.484 -5.474 -5.474 -5.484 -5.484 -5.474 -5.464 -5.445 -5.425 -5.405 -5.385 -5.375 -5.375 -5.375 -5.385 -5.385 -5.395 -5.405 -5.415 -5.405 -5.365 -5.305 -5.235 -5.164 -5.104 -5.044 -4.994 -4.954 -4.914 -4.884 -4.844 -4.820
2.412 2.022 1.932 1.842 1.772 1.661 1.611 1.631 1.501 1.421 1.301 1.241 1.351 1.278 1.208 0.808 0.578 0.508 0.628 0.308 0.358 0.352 0.112 0.212 0.112 0.132 0.032 -0.188 -0.228 -0.278 -0.338 -0.398 -0.468 -0.528 -0.588 -0.638 -0.678 -0.721 -0.751 -0.781 -0.811 -0.841 -0.871 -0.901 -0.931 -0.947 -0.957 -0.957 -0.937 -0.907 -0.867 -0.847 -0.837 -0.841 -0.851 -0.871 -0.891 -0.911 -0.921 -0.941 -0.961 -0.982 -1.002 -1.022 -1.042 -1.062 -1.082 -1.082 -1.072 -1.043 -1.013 -0.993 -0.993 -1.003 -1.033 -1.073 -1.103 -1.120 -1.130 -1.140 -1.160 -1.180 -1.200 -1.230 -1.270 -1.313 -1.353 -1.363 -1.363 -1.373 -1.383 -1.393 -1.403 -1.420 -1.450 -1.470 -1.490 -1.510 -1.540 -1.570 -1.590 -1.609 -1.619 -1.619 -1.619 -1.619 -1.619 -1.619 -1.629 -1.635 -1.645 -1.645 -1.645 -1.645 -1.655 -1.675 -1.685 -1.701 -1.711 -1.731 -1.751 -1.771 -1.791 -1.811 -1.831 -1.845 -1.855 -1.865 -1.875 -1.875 -1.875 -1.865 -1.865 -1.861 -1.871 -1.881 -1.891 -1.901 -1.921 -1.951 -2.001 -2.051 -2.091 -2.121 -2.131 -2.131 -2.131 -2.111 -2.071 -2.010 -1.950 -1.910 -1.880 -1.870 -1.870 -1.900 -1.950 -2.015 -2.095 -2.155 -2.215 -2.245 -2.265 -2.285 -2.295 -2.306 -2.326 -2.356 -2.386 -2.416 -2.446 -2.476 -2.506 -2.516 -2.526 -2.526 -2.536 -2.546 -2.546 -2.526 -2.486 -2.459 -2.439 -2.429 -2.439 -2.459 -2.499 -2.539 -2.559 -2.562 -2.562 -2.562 -2.552 -2.552 -2.552 -2.572 -2.602 -2.644 -2.674 -2.694 -2.704 -2.694 -2.694 -2.694 -2.714 -2.730 -2.750 -2.770 -2.780 -2.800 -2.820 -2.840 -2.850 -2.871 -2.891 -2.931 -2.981 -3.051 -3.101 -3.141 -3.161 -3.188 -3.208 -3.238 -3.278 -3.318 -3.358 -3.398 -3.438 -3.483 -3.533 -3.583 -3.613 -3.623 -3.623 -3.643 -3.673 -3.720 -3.760 -3.790 -3.810 -3.820 -3.840 -3.880 -3.920 -3.957 -3.997 -4.027 -4.057 -4.087 -4.107 -4.147 -4.177 -4.212 -4.242 -4.282 -4.322 -4.342 -4.362 -4.352 -4.342 -4.327 -4.307 -4.287 -4.277 -4.297 -4.327 -4.377 -4.417 -4.453 -4.493 -4.523 -4.553 -4.583 -4.613 -4.633 -4.643 -4.643 -4.653 -4.663 -4.693 -4.733 -4.793 -4.853 -4.923 -4.986 -5.056 -5.116 -5.186 -5.266 -5.346 -5.426 -5.506 -5.561 -5.601 -5.611 -5.601 -5.591 -5.601 -5.621 -5.631 -5.629 -5.639 -5.639 -5.649 -5.679 -5.739 -5.799 -5.859 -5.914 -5.954 -5.994 -6.034 -6.074 -6.094 -6.104 -6.104 -6.111 -6.131 -6.141 -6.151 -6.171 -6.201 -6.221 -6.231 -6.245 -6.235 -6.235 -6.235 -6.235 -6.235 -6.245 -6.265 -6.269 -6.279 -6.289 -6.299 -6.319 -6.339 -6.359 -6.369 -6.368 -6.358 -6.348 -6.338 -6.338 -6.338 -6.348 -6.368 -6.388 -6.408 -6.418 -6.428 -6.418 -6.398 -6.388 -6.378 -6.377 -6.377 -6.377 -6.377 -6.377 -6.377 -6.387 -6.397 -6.416 -6.446 -6.476 -6.476 -6.456 -6.416 -6.366 -6.336 -6.315 -6.335 -6.375 -6.395 -6.395 -6.375 -6.355 -6.335 -6.325 -6.325 -6.335 -6.345 -6.345 -6.325 -6.315 -6.305 -6.321 -6.321 -6.301 -6.251 -6.181 -6.091 -6.001 -5.941 -5.920 -5.930 -5.950 -5.930 -5.880 -5.800 -5.720 -5.690 -5.709 -5.759 -5.799 -5.839 -5.839 -5.829 -5.809 -5.779 -5.753 -5.723 -5.703 -5.683 -5.663 -5.623 -5.573 -5.533 -5.504 -5.494 -5.484 -5.494 -5.504 -5.514 -5.504 -5.484 -5.465 -5.445 -5.425 -5.405 -5.385 -5.385 -5.385 -5.385 -5.385 -5.395 -5.405 -5.395 -5.375 -5.325 -5.265 -5.195 -5.124 -5.064 -5.014 -4.964 -4.924 -4.894 -4.854 -4.834 -4.800
2.882 2.742 2.202 1.982 1.842 1.871 1.951 1.701 1.751 1.741 1.511 1.411 1.291 1.198 1.328 1.268 1.248 1.208 0.828 0.748 0.788 0.602 1.102 0.912 0.752 0.562 0.392 0.262 0.062 0.162 -0.228 -0.298 -0.378 -0.448 -0.528 -0.598 -0.658 -0.711 -0.751 -0.781 -0.821 -0.861 -0.901 -0.931 -0.941 -0.947 -0.947 -0.937 -0.917 -0.877 -0.847 -0.817 -0.807 -0.811 -0.821 -0.841 -0.861 -0.871 -0.891 -0.911 -0.931 -0.952 -0.962 -0.982 -1.002 -1.022 -1.042 -1.042 -1.032 -1.013 -0.983 -0.973 -0.963 -0.983 -1.013 -1.043 -1.073 -1.090 -1.110 -1.130 -1.150 -1.160 -1.180 -1.200 -1.240 -1.273 -1.293 -1.283 -1.273 -1.263 -1.263 -1.283 -1.303 -1.320 -1.350 -1.390 -1.420 -1.460 -1.490 -1.530 -1.560 -1.579 -1.579 -1.589 -1.589 -1.589 -1.589 -1.589 -1.589 -1.595 -1.595 -1.595 -1.595 -1.595 -1.615 -1.625 -1.635 -1.641 -1.661 -1.671 -1.691 -1.711 -1.731 -1.751 -1.771 -1.785 -1.805 -1.815 -1.815 -1.825 -1.815 -1.805 -1.805 -1.801 -1.811 -1.821 -1.841 -1.861 -1.881 -1.931 -1.981 -2.031 -2.071 -2.091 -2.101 -2.111 -2.111 -2.091 -2.051 -1.990 -1.930 -1.890 -1.860 -1.860 -1.870 -1.890 -1.940 -1.995 -2.075 -2.145 -2.195 -2.235 -2.255 -2.275 -2.285 -2.296 -2.316 -2.346 -2.376 -2.406 -2.446 -2.476 -2.516 -2.536 -2.546 -2.556 -2.566 -2.576 -2.566 -2.546 -2.516 -2.479 -2.449 -2.439 -2.439 -2.469 -2.519 -2.559 -2.579 -2.582 -2.572 -2.562 -2.552 -2.552 -2.562 -2.582 -2.612 -2.644 -2.674 -2.694 -2.694 -2.684 -2.674 -2.684 -2.694 -2.710 -2.730 -2.750 -2.760 -2.780 -2.790 -2.800 -2.810 -2.821 -2.841 -2.881 -2.921 -2.981 -3.031 -3.071 -3.101 -3.118 -3.138 -3.168 -3.208 -3.248 -3.288 -3.338 -3.378 -3.433 -3.483 -3.523 -3.553 -3.563 -3.573 -3.603 -3.633 -3.680 -3.720 -3.750 -3.770 -3.790 -3.810 -3.850 -3.900 -3.937 -3.977 -4.007 -4.027 -4.057 -4.087 -4.117 -4.147 -4.192 -4.222 -4.262 -4.292 -4.322 -4.332 -4.322 -4.302 -4.287 -4.267 -4.257 -4.257 -4.277 -4.317 -4.377 -4.427 -4.473 -4.503 -4.543 -4.573 -4.593 -4.623 -4.643 -4.663 -4.683 -4.713 -4.733 -4.763 -4.803 -4.853 -4.903 -4.973 -5.026 -5.086 -5.156 -5.226 -5.306 -5.386 -5.456 -5.526 -5.571 -5.591 -5.581 -5.561 -5.541 -5.541 -5.551 -5.561 -5.569 -5.569 -5.579 -5.599 -5.639 -5.689 -5.759 -5.829 -5.884 -5.924 -5.954 -5.994 -6.034 -6.064 -6.074 -6.084 -6.091 -6.101 -6.121 -6.131 -6.151 -6.181 -6.201 -6.221 -6.225 -6.225 -6.225 -6.225 -6.225 -6.225 -6.235 -6.245 -6.249 -6.259 -6.269 -6.289 -6.299 -6.329 -6.349 -6.359 -6.368 -6.348 -6.338 -6.328 -6.318 -6.328 -6.338 -6.358 -6.368 -6.388 -6.408 -6.408 -6.408 -6.398 -6.398 -6.388 -6.387 -6.387 -6.387 -6.377 -6.377 -6.377 -6.387 -6.397 -6.416 -6.446 -6.466 -6.476 -6.466 -6.446 -6.426 -6.416 -6.425 -6.445 -6.455 -6.455 -6.425 -6.385 -6.355 -6.335 -6.325 -6.335 -6.345 -6.355 -6.355 -6.335 -6.315 -6.305 -6.311 -6.331 -6.331 -6.301 -6.251 -6.171 -6.091 -6.031 -6.000 -5.990 -5.980 -5.960 -5.900 -5.810 -5.730 -5.690 -5.699 -5.749 -5.799 -5.839 -5.849 -5.839 -5.819 -5.789 -5.753 -5.723 -5.693 -5.663 -5.633 -5.583 -5.543 -5.513 -5.494 -5.494 -5.504 -5.514 -5.524 -5.534 -5.524 -5.514 -5.485 -5.465 -5.435 -5.415 -5.405 -5.395 -5.385 -5.385 -5.395 -5.395 -5.395 -5.385 -5.345 -5.285 -5.215 -5.145 -5.084 -5.024 -4.984 -4.944 -4.904 -4.864 -4.844 -4.814 -4.780
2.642 2.922 2.622 2.562 2.502 2.181 1.911 1.901 1.841 1.821 1.761 1.731 1.541 1.368 1.278 1.228 1.348 1.318 1.258 0.898 0.668 1.082 1.052 1.332 1.182 1.032 0.832 0.642 0.482 0.322 0.202 0.152 -0.258 -0.328 -0.418 -0.498 -0.578 -0.651 -0.711 -0.761 -0.811 -0.861 -0.901 -0.921 -0.921 -0.917 -0.917 -0.907 -0.887 -0.857 -0.827 -0.807 -0.787 -0.791 -0.801 -0.811 -0.831 -0.851 -0.871 -0.891 -0.911 -0.922 -0.942 -0.962 -0.992 -1.012 -1.022 -1.012 -1.002 -0.983 -0.953 -0.943 -0.933 -0.943 -0.963 -0.993 -1.023 -1.050 -1.070 -1.100 -1.120 -1.140 -1.160 -1.190 -1.210 -1.223 -1.223 -1.203 -1.173 -1.153 -1.143 -1.153 -1.173 -1.200 -1.250 -1.300 -1.340 -1.380 -1.430 -1.470 -1.510 -1.529 -1.539 -1.549 -1.549 -1.549 -1.549 -1.549 -1.549 -1.555 -1.555 -1.545 -1.545 -1.555 -1.565 -1.575 -1.585 -1.591 -1.601 -1.611 -1.631 -1.651 -1.671 -1.691 -1.711 -1.725 -1.745 -1.755 -1.755 -1.755 -1.755 -1.745 -1.735 -1.741 -1.751 -1.771 -1.791 -1.821 -1.851 -1.901 -1.961 -2.011 -2.041 -2.061 -2.071 -2.071 -2.071 -2.061 -2.021 -1.960 -1.900 -1.860 -1.840 -1.840 -1.850 -1.870 -1.910 -1.965 -2.035 -2.105 -2.165 -2.205 -2.235 -2.255 -2.265 -2.286 -2.306 -2.326 -2.356 -2.396 -2.436 -2.476 -2.516 -2.546 -2.566 -2.586 -2.596 -2.606 -2.596 -2.576 -2.546 -2.509 -2.469 -2.449 -2.449 -2.489 -2.539 -2.579 -2.609 -2.602 -2.592 -2.572 -2.562 -2.562 -2.572 -2.602 -2.632 -2.654 -2.664 -2.664 -2.664 -2.664 -2.664 -2.674 -2.694 -2.710 -2.720 -2.740 -2.750 -2.760 -2.770 -2.770 -2.780 -2.791 -2.811 -2.831 -2.871 -2.911 -2.961 -3.001 -3.031 -3.058 -3.078 -3.108 -3.138 -3.178 -3.218 -3.268 -3.318 -3.373 -3.423 -3.463 -3.483 -3.503 -3.533 -3.563 -3.603 -3.640 -3.680 -3.710 -3.740 -3.760 -3.790 -3.820 -3.860 -3.897 -3.927 -3.957 -3.987 -4.007 -4.037 -4.067 -4.107 -4.142 -4.182 -4.212 -4.242 -4.262 -4.262 -4.252 -4.242 -4.237 -4.237 -4.227 -4.237 -4.267 -4.307 -4.367 -4.427 -4.473 -4.513 -4.543 -4.573 -4.603 -4.633 -4.663 -4.693 -4.733 -4.763 -4.793 -4.823 -4.853 -4.903 -4.953 -5.003 -5.066 -5.126 -5.186 -5.246 -5.326 -5.396 -5.466 -5.516 -5.551 -5.561 -5.551 -5.531 -5.511 -5.511 -5.521 -5.531 -5.539 -5.539 -5.539 -5.569 -5.609 -5.679 -5.749 -5.819 -5.864 -5.894 -5.924 -5.944 -5.984 -6.014 -6.044 -6.064 -6.071 -6.071 -6.081 -6.091 -6.111 -6.141 -6.171 -6.201 -6.215 -6.215 -6.215 -6.215 -6.215 -6.215 -6.215 -6.225 -6.239 -6.249 -6.259 -6.269 -6.289 -6.309 -6.339 -6.349 -6.358 -6.348 -6.328 -6.318 -6.318 -6.318 -6.328 -6.348 -6.358 -6.368 -6.388 -6.398 -6.398 -6.398 -6.398 -6.398 -6.387 -6.387 -6.387 -6.387 -6.377 -6.377 -6.387 -6.397 -6.406 -6.426 -6.446 -6.456 -6.456 -6.456 -6.456 -6.466 -6.485 -6.495 -6.495 -6.465 -6.425 -6.375 -6.345 -6.325 -6.315 -6.325 -6.345 -6.355 -6.345 -6.325 -6.295 -6.295 -6.301 -6.321 -6.331 -6.311 -6.271 -6.221 -6.151 -6.101 -6.070 -6.050 -6.030 -6.000 -5.940 -5.860 -5.770 -5.730 -5.739 -5.769 -5.809 -5.839 -5.849 -5.839 -5.809 -5.779 -5.743 -5.713 -5.673 -5.643 -5.603 -5.563 -5.533 -5.513 -5.504 -5.504 -5.514 -5.524 -5.534 -5.544 -5.544 -5.524 -5.495 -5.465 -5.445 -5.425 -5.405 -5.395 -5.385 -5.395 -5.395 -5.405 -5.395 -5.355 -5.305 -5.235 -5.165 -5.095 -5.044 -4.994 -4.954 -4.914 -4.884 -4.854 -4.824 -4.794 -4.760
2.482 2.572 2.612 2.572 2.572 2.551 2.391 2.171 1.961 1.841 1.861 1.811 1.841 1.628 1.528 1.408 1.288 1.228 1.188 1.138 1.258 1.252 1.192 1.132 0.982 1.412 1.342 1.132 0.932 0.732 0.532 0.112 0.012 -0.208 -0.278 -0.358 -0.448 -0.531 -0.601 -0.671 -0.741 -0.801 -0.841 -0.861 -0.871 -0.867 -0.867 -0.867 -0.847 -0.827 -0.807 -0.787 -0.777 -0.781 -0.781 -0.791 -0.801 -0.821 -0.851 -0.881 -0.901 -0.912 -0.942 -0.962 -0.992 -1.012 -1.022 -1.012 -0.992 -0.953 -0.923 -0.893 -0.883 -0.893 -0.913 -0.933 -0.963 -0.990 -1.020 -1.050 -1.080 -1.110 -1.140 -1.160 -1.170 -1.173 -1.153 -1.123 -1.083 -1.053 -1.043 -1.043 -1.063 -1.090 -1.140 -1.190 -1.240 -1.290 -1.340 -1.390 -1.440 -1.479 -1.499 -1.499 -1.509 -1.509 -1.509 -1.499 -1.499 -1.505 -1.505 -1.495 -1.495 -1.495 -1.505 -1.515 -1.525 -1.531 -1.541 -1.551 -1.571 -1.591 -1.611 -1.631 -1.651 -1.665 -1.675 -1.685 -1.695 -1.685 -1.685 -1.675 -1.675 -1.681 -1.691 -1.721 -1.741 -1.781 -1.821 -1.881 -1.931 -1.981 -2.001 -2.021 -2.031 -2.041 -2.041 -2.021 -1.981 -1.920 -1.860 -1.820 -1.800 -1.790 -1.800 -1.820 -1.860 -1.915 -1.985 -2.055 -2.115 -2.165 -2.195 -2.225 -2.235 -2.256 -2.286 -2.316 -2.346 -2.386 -2.426 -2.476 -2.516 -2.546 -2.576 -2.596 -2.616 -2.626 -2.626 -2.606 -2.576 -2.539 -2.499 -2.479 -2.479 -2.509 -2.559 -2.599 -2.619 -2.622 -2.602 -2.582 -2.572 -2.572 -2.592 -2.622 -2.652 -2.664 -2.654 -2.644 -2.634 -2.644 -2.664 -2.684 -2.694 -2.710 -2.720 -2.740 -2.750 -2.760 -2.760 -2.750 -2.760 -2.761 -2.781 -2.801 -2.831 -2.861 -2.901 -2.941 -2.971 -2.998 -3.028 -3.058 -3.088 -3.118 -3.148 -3.198 -3.248 -3.313 -3.363 -3.403 -3.423 -3.453 -3.483 -3.523 -3.563 -3.600 -3.640 -3.670 -3.700 -3.730 -3.760 -3.790 -3.820 -3.847 -3.867 -3.897 -3.917 -3.947 -3.967 -4.007 -4.047 -4.082 -4.112 -4.132 -4.142 -4.162 -4.172 -4.172 -4.182 -4.187 -4.197 -4.207 -4.227 -4.257 -4.307 -4.357 -4.417 -4.463 -4.503 -4.543 -4.573 -4.613 -4.653 -4.693 -4.733 -4.773 -4.813 -4.843 -4.873 -4.903 -4.933 -4.983 -5.033 -5.086 -5.136 -5.196 -5.256 -5.316 -5.376 -5.436 -5.476 -5.501 -5.511 -5.511 -5.501 -5.501 -5.511 -5.521 -5.531 -5.539 -5.529 -5.539 -5.559 -5.609 -5.679 -5.759 -5.819 -5.854 -5.874 -5.894 -5.904 -5.934 -5.974 -6.014 -6.034 -6.041 -6.041 -6.031 -6.041 -6.061 -6.091 -6.121 -6.161 -6.195 -6.205 -6.215 -6.205 -6.205 -6.205 -6.205 -6.215 -6.219 -6.229 -6.239 -6.249 -6.269 -6.289 -6.319 -6.339 -6.338 -6.338 -6.328 -6.328 -6.318 -6.328 -6.328 -6.338 -6.348 -6.358 -6.368 -6.388 -6.388 -6.388 -6.398 -6.388 -6.387 -6.387 -6.387 -6.387 -6.387 -6.387 -6.387 -6.397 -6.406 -6.416 -6.426 -6.436 -6.436 -6.446 -6.456 -6.476 -6.495 -6.505 -6.495 -6.455 -6.405 -6.355 -6.325 -6.315 -6.315 -6.325 -6.335 -6.335 -6.325 -6.305 -6.285 -6.275 -6.281 -6.301 -6.311 -6.301 -6.281 -6.241 -6.201 -6.161 -6.140 -6.120 -6.100 -6.060 -6.010 -5.930 -5.850 -5.810 -5.799 -5.819 -5.829 -5.839 -5.839 -5.819 -5.799 -5.769 -5.733 -5.703 -5.663 -5.623 -5.583 -5.543 -5.523 -5.513 -5.514 -5.514 -5.524 -5.524 -5.534 -5.544 -5.534 -5.514 -5.495 -5.465 -5.435 -5.415 -5.405 -5.395 -5.395 -5.405 -5.415 -5.405 -5.385 -5.335 -5.265 -5.195 -5.125 -5.065 -5.014 -4.974 -4.934 -4.894 -4.864 -4.834 -4.804 -4.774 -4.740
2.292 2.562 2.582 2.602 2.672 2.581 2.481 2.471 2.191 2.171 1.981 1.941 1.861 1.698 1.648 1.558 1.508 1.408 1.348 1.258 1.198 1.152 1.122 1.092 0.962 1.002 0.892 1.472 1.362 1.192 0.982 0.422 0.242 0.112 0.132 -0.208 -0.288 -0.361 -0.441 -0.531 -0.611 -0.681 -0.741 -0.771 -0.791 -0.807 -0.807 -0.817 -0.807 -0.797 -0.777 -0.777 -0.767 -0.761 -0.771 -0.771 -0.781 -0.801 -0.831 -0.861 -0.891 -0.922 -0.942 -0.972 -1.002 -1.032 -1.032 -1.022 -0.982 -0.933 -0.893 -0.853 -0.833 -0.833 -0.843 -0.863 -0.903 -0.930 -0.970 -1.000 -1.030 -1.060 -1.090 -1.110 -1.120 -1.113 -1.093 -1.063 -1.023 -0.993 -0.973 -0.973 -0.983 -1.010 -1.050 -1.100 -1.140 -1.180 -1.240 -1.300 -1.360 -1.409 -1.439 -1.449 -1.459 -1.459 -1.459 -1.459 -1.449 -1.445 -1.445 -1.435 -1.425 -1.425 -1.435 -1.445 -1.455 -1.471 -1.471 -1.491 -1.501 -1.521 -1.541 -1.561 -1.581 -1.595 -1.605 -1.615 -1.615 -1.615 -1.605 -1.605 -1.605 -1.611 -1.631 -1.661 -1.701 -1.741 -1.791 -1.841 -1.891 -1.931 -1.961 -1.971 -1.991 -2.001 -2.001 -1.981 -1.931 -1.870 -1.800 -1.750 -1.730 -1.710 -1.710 -1.740 -1.770 -1.835 -1.905 -1.985 -2.055 -2.115 -2.155 -2.185 -2.215 -2.236 -2.266 -2.296 -2.336 -2.376 -2.416 -2.456 -2.506 -2.536 -2.576 -2.596 -2.616 -2.626 -2.636 -2.626 -2.606 -2.569 -2.529 -2.509 -2.509 -2.539 -2.579 -2.609 -2.629 -2.622 -2.612 -2.592 -2.592 -2.592 -2.612 -2.652 -2.672 -2.674 -2.664 -2.644 -2.634 -2.654 -2.674 -2.694 -2.704 -2.710 -2.710 -2.730 -2.740 -2.750 -2.750 -2.750 -2.750 -2.751 -2.761 -2.781 -2.801 -2.821 -2.861 -2.891 -2.921 -2.958 -2.988 -3.018 -3.038 -3.068 -3.108 -3.148 -3.208 -3.273 -3.323 -3.353 -3.373 -3.403 -3.443 -3.483 -3.513 -3.550 -3.580 -3.610 -3.650 -3.680 -3.710 -3.740 -3.760 -3.787 -3.807 -3.827 -3.857 -3.877 -3.907 -3.947 -3.987 -4.022 -4.032 -4.042 -4.052 -4.072 -4.092 -4.112 -4.132 -4.157 -4.177 -4.197 -4.217 -4.257 -4.297 -4.347 -4.407 -4.453 -4.493 -4.533 -4.583 -4.623 -4.673 -4.723 -4.763 -4.803 -4.833 -4.863 -4.893 -4.933 -4.963 -5.013 -5.053 -5.096 -5.146 -5.196 -5.246 -5.296 -5.346 -5.386 -5.416 -5.441 -5.451 -5.471 -5.481 -5.491 -5.501 -5.521 -5.531 -5.539 -5.539 -5.539 -5.569 -5.619 -5.699 -5.769 -5.829 -5.854 -5.864 -5.864 -5.874 -5.904 -5.934 -5.984 -6.004 -6.011 -6.001 -5.991 -5.981 -6.001 -6.031 -6.071 -6.131 -6.165 -6.195 -6.205 -6.205 -6.205 -6.195 -6.195 -6.195 -6.209 -6.209 -6.219 -6.239 -6.259 -6.279 -6.299 -6.319 -6.328 -6.338 -6.328 -6.328 -6.328 -6.328 -6.328 -6.328 -6.338 -6.348 -6.358 -6.368 -6.368 -6.378 -6.378 -6.378 -6.377 -6.377 -6.377 -6.377 -6.387 -6.387 -6.387 -6.397 -6.396 -6.406 -6.406 -6.416 -6.416 -6.426 -6.436 -6.456 -6.475 -6.475 -6.455 -6.425 -6.375 -6.335 -6.305 -6.295 -6.295 -6.305 -6.315 -6.315 -6.295 -6.275 -6.265 -6.265 -6.271 -6.281 -6.291 -6.291 -6.271 -6.251 -6.231 -6.211 -6.190 -6.170 -6.160 -6.130 -6.080 -6.010 -5.950 -5.900 -5.879 -5.869 -5.849 -5.839 -5.829 -5.809 -5.789 -5.759 -5.723 -5.683 -5.643 -5.593 -5.563 -5.533 -5.523 -5.513 -5.524 -5.524 -5.524 -5.524 -5.534 -5.534 -5.524 -5.504 -5.485 -5.455 -5.425 -5.415 -5.405 -5.415 -5.415 -5.425 -5.415 -5.405 -5.365 -5.295 -5.225 -5.155 -5.085 -5.035 -4.994 -4.954 -4.914 -4.874 -4.844 -4.814 -4.784 -4.754 -4.720
2.257 2.457 2.497 2.587 2.527 2.593 2.533 2.543 2.423 2.463 2.203 2.093 1.973 1.962 1.802 1.712 1.642 1.632 1.562 1.482 1.372 1.295 1.225 1.185 1.165 1.135 1.095 1.045 0.915 1.455 0.895 0.825 0.685 0.515 0.415 0.265 0.105 -0.204 -0.274 -0.354 -0.434 -0.514 -0.574 -0.634 -0.674 -0.703 -0.723 -0.733 -0.733 -0.733 -0.733 -0.743 -0.743 -0.747 -0.747 -0.757 -0.757 -0.777 -0.797 -0.837 -0.877 -0.908 -0.948 -0.978 -1.018 -1.038 -1.048 -1.028 -0.988 -0.924 -0.864 -0.814 -0.794 -0.784 -0.794 -0.824 -0.854 -0.886 -0.916 -0.956 -0.986 -1.016 -1.026 -1.046 -1.046 -1.042 -1.032 -1.012 -0.992 -0.962 -0.942 -0.942 -0.952 -0.967 -0.997 -1.027 -1.057 -1.097 -1.147 -1.217 -1.287 -1.342 -1.372 -1.382 -1.392 -1.402 -1.402 -1.402 -1.392 -1.378 -1.368 -1.358 -1.348 -1.348 -1.358 -1.378 -1.388 -1.399 -1.409 -1.419 -1.439 -1.459 -1.469 -1.489 -1.509 -1.523 -1.533 -1.533 -1.533 -1.523 -1.523 -1.523 -1.523 -1.551 -1.581 -1.611 -1.651 -1.701 -1.751 -1.811 -1.851 -1.883 -1.913 -1.933 -1.943 -1.963 -1.963 -1.943 -1.893 -1.814 -1.734 -1.674 -1.634 -1.614 -1.614 -1.634 -1.674 -1.738 -1.818 -1.908 -1.988 -2.058 -2.118 -2.158 -2.188 -2.219 -2.249 -2.279 -2.319 -2.359 -2.399 -2.449 -2.489 -2.528 -2.558 -2.588 -2.608 -2.618 -2.628 -2.628 -2.618 -2.593 -2.563 -2.543 -2.543 -2.573 -2.603 -2.623 -2.633 -2.639 -2.629 -2.619 -2.609 -2.619 -2.639 -2.669 -2.689 -2.687 -2.677 -2.657 -2.657 -2.667 -2.687 -2.697 -2.697 -2.696 -2.696 -2.706 -2.726 -2.736 -2.736 -2.736 -2.736 -2.739 -2.749 -2.769 -2.789 -2.809 -2.829 -2.859 -2.889 -2.920 -2.950 -2.980 -3.010 -3.040 -3.070 -3.120 -3.180 -3.237 -3.287 -3.307 -3.327 -3.367 -3.397 -3.427 -3.457 -3.483 -3.513 -3.553 -3.583 -3.613 -3.643 -3.673 -3.703 -3.728 -3.748 -3.768 -3.798 -3.828 -3.858 -3.888 -3.928 -3.959 -3.969 -3.979 -3.989 -4.009 -4.029 -4.069 -4.099 -4.129 -4.159 -4.179 -4.209 -4.239 -4.279 -4.329 -4.389 -4.442 -4.492 -4.542 -4.582 -4.632 -4.692 -4.732 -4.782 -4.812 -4.842 -4.872 -4.912 -4.942 -4.992 -5.022 -5.062 -5.098 -5.138 -5.178 -5.218 -5.248 -5.288 -5.318 -5.348 -5.380 -5.400 -5.430 -5.450 -5.460 -5.480 -5.500 -5.520 -5.534 -5.534 -5.554 -5.584 -5.644 -5.714 -5.784 -5.834 -5.858 -5.858 -5.858 -5.858 -5.878 -5.908 -5.948 -5.968 -5.974 -5.954 -5.944 -5.944 -5.954 -5.984 -6.034 -6.094 -6.149 -6.189 -6.209 -6.209 -6.199 -6.189 -6.179 -6.179 -6.187 -6.197 -6.207 -6.217 -6.247 -6.267 -6.287 -6.307 -6.320 -6.330 -6.330 -6.330 -6.330 -6.330 -6.330 -6.330 -6.335 -6.335 -6.345 -6.345 -6.355 -6.355 -6.365 -6.365 -6.364 -6.364 -6.364 -6.374 -6.374 -6.384 -6.384 -6.394 -6.398 -6.398 -6.398 -6.398 -6.398 -6.398 -6.408 -6.428 -6.438 -6.438 -6.418 -6.378 -6.338 -6.298 -6.278 -6.268 -6.275 -6.275 -6.285 -6.285 -6.265 -6.245 -6.245 -6.245 -6.249 -6.259 -6.269 -6.269 -6.259 -6.249 -6.239 -6.229 -6.221 -6.211 -6.191 -6.171 -6.131 -6.081 -6.021 -5.981 -5.943 -5.903 -5.873 -5.853 -5.833 -5.813 -5.783 -5.753 -5.708 -5.658 -5.618 -5.578 -5.538 -5.518 -5.518 -5.518 -5.532 -5.532 -5.532 -5.532 -5.522 -5.522 -5.512 -5.492 -5.476 -5.456 -5.436 -5.426 -5.426 -5.436 -5.436 -5.436 -5.421 -5.381 -5.331 -5.261 -5.191 -5.121 -5.061 -5.011 -4.972 -4.932 -4.902 -4.862 -4.822 -4.792 -4.762 -4.732 -4.702
2.107 2.227 2.287 2.517 2.647 2.613 2.543 2.493 2.523 2.463 2.433 2.443 2.373 2.242 1.972 1.842 1.822 1.762 1.682 1.582 1.492 1.415 1.325 1.285 1.275 1.235 1.195 1.155 1.075 1.005 1.525 0.965 0.935 1.015 0.515 0.495 0.345 0.206 0.276 0.036 -0.254 -0.324 -0.394 -0.454 -0.514 -0.563 -0.593 -0.613 -0.633 -0.653 -0.663 -0.683 -0.703 -0.707 -0.717 -0.727 -0.727 -0.737 -0.757 -0.797 -0.837 -0.888 -0.928 -0.978 -1.018 -1.038 -1.048 -1.028 -0.978 -0.914 -0.854 -0.804 -0.764 -0.754 -0.764 -0.794 -0.824 -0.856 -0.886 -0.916 -0.946 -0.966 -0.976 -0.976 -0.976 -0.982 -0.982 -0.982 -0.962 -0.952 -0.932 -0.932 -0.942 -0.947 -0.957 -0.977 -1.007 -1.037 -1.087 -1.147 -1.217 -1.262 -1.292 -1.302 -1.312 -1.322 -1.322 -1.322 -1.312 -1.298 -1.278 -1.268 -1.258 -1.258 -1.268 -1.298 -1.318 -1.339 -1.349 -1.369 -1.379 -1.399 -1.409 -1.419 -1.429 -1.443 -1.453 -1.443 -1.443 -1.443 -1.433 -1.433 -1.453 -1.481 -1.521 -1.561 -1.611 -1.661 -1.721 -1.771 -1.811 -1.843 -1.863 -1.893 -1.903 -1.923 -1.923 -1.903 -1.843 -1.764 -1.684 -1.604 -1.544 -1.514 -1.524 -1.544 -1.594 -1.658 -1.738 -1.838 -1.938 -2.018 -2.078 -2.128 -2.168 -2.199 -2.229 -2.269 -2.299 -2.339 -2.379 -2.429 -2.469 -2.518 -2.548 -2.568 -2.588 -2.598 -2.608 -2.608 -2.598 -2.593 -2.573 -2.563 -2.573 -2.593 -2.623 -2.633 -2.643 -2.649 -2.639 -2.639 -2.629 -2.639 -2.649 -2.669 -2.689 -2.697 -2.697 -2.677 -2.677 -2.687 -2.697 -2.687 -2.677 -2.666 -2.666 -2.676 -2.686 -2.706 -2.706 -2.716 -2.726 -2.729 -2.739 -2.759 -2.779 -2.799 -2.819 -2.839 -2.869 -2.900 -2.920 -2.950 -2.980 -3.010 -3.050 -3.100 -3.150 -3.207 -3.237 -3.257 -3.287 -3.317 -3.357 -3.377 -3.397 -3.423 -3.453 -3.483 -3.523 -3.553 -3.593 -3.623 -3.653 -3.668 -3.698 -3.718 -3.758 -3.788 -3.818 -3.848 -3.878 -3.909 -3.919 -3.929 -3.949 -3.969 -3.999 -4.039 -4.079 -4.119 -4.149 -4.169 -4.199 -4.229 -4.269 -4.319 -4.379 -4.432 -4.482 -4.532 -4.582 -4.632 -4.692 -4.742 -4.782 -4.812 -4.842 -4.872 -4.912 -4.952 -4.992 -5.032 -5.062 -5.088 -5.128 -5.158 -5.178 -5.208 -5.228 -5.258 -5.298 -5.330 -5.370 -5.400 -5.420 -5.430 -5.450 -5.470 -5.490 -5.504 -5.524 -5.554 -5.604 -5.664 -5.734 -5.804 -5.844 -5.858 -5.858 -5.848 -5.848 -5.858 -5.878 -5.908 -5.918 -5.924 -5.914 -5.904 -5.904 -5.924 -5.954 -6.004 -6.064 -6.129 -6.179 -6.199 -6.199 -6.189 -6.179 -6.159 -6.159 -6.167 -6.177 -6.187 -6.207 -6.227 -6.257 -6.277 -6.297 -6.310 -6.320 -6.320 -6.330 -6.330 -6.330 -6.330 -6.330 -6.325 -6.325 -6.335 -6.335 -6.345 -6.345 -6.345 -6.345 -6.354 -6.354 -6.354 -6.354 -6.364 -6.374 -6.384 -6.394 -6.398 -6.388 -6.388 -6.378 -6.378 -6.378 -6.388 -6.388 -6.398 -6.388 -6.368 -6.338 -6.308 -6.278 -6.248 -6.238 -6.245 -6.245 -6.245 -6.235 -6.225 -6.215 -6.215 -6.215 -6.229 -6.239 -6.239 -6.239 -6.239 -6.239 -6.239 -6.229 -6.231 -6.221 -6.211 -6.191 -6.161 -6.121 -6.071 -6.021 -5.973 -5.923 -5.893 -5.863 -5.843 -5.823 -5.783 -5.743 -5.688 -5.638 -5.588 -5.548 -5.528 -5.508 -5.508 -5.518 -5.532 -5.532 -5.532 -5.532 -5.522 -5.512 -5.502 -5.492 -5.476 -5.456 -5.456 -5.456 -5.456 -5.466 -5.466 -5.446 -5.411 -5.361 -5.291 -5.221 -5.161 -5.091 -5.041 -4.991 -4.952 -4.922 -4.882 -4.852 -4.812 -4.782 -4.752 -4.722 -4.692
1.917 2.027 2.037 2.057 2.117 2.323 2.353 2.443 2.443 2.523 2.593 2.663 2.443 2.292 2.162 2.222 1.972 1.862 1.792 1.712 1.622 1.545 1.455 1.375 1.325 1.295 1.285 1.285 1.205 1.155 1.035 0.845 1.495 1.565 1.275 0.745 0.635 0.726 0.236 0.316 0.286 0.026 0.106 -0.284 -0.334 -0.393 -0.433 -0.463 -0.493 -0.533 -0.563 -0.593 -0.623 -0.647 -0.667 -0.687 -0.697 -0.697 -0.717 -0.747 -0.797 -0.848 -0.898 -0.958 -0.998 -1.028 -1.028 -1.018 -0.978 -0.914 -0.854 -0.794 -0.754 -0.744 -0.754 -0.774 -0.804 -0.836 -0.856 -0.876 -0.906 -0.926 -0.926 -0.926 -0.926 -0.932 -0.942 -0.952 -0.952 -0.942 -0.942 -0.932 -0.932 -0.927 -0.927 -0.937 -0.967 -0.997 -1.037 -1.087 -1.147 -1.182 -1.202 -1.202 -1.212 -1.212 -1.222 -1.212 -1.202 -1.188 -1.178 -1.168 -1.158 -1.158 -1.178 -1.218 -1.248 -1.279 -1.299 -1.309 -1.329 -1.339 -1.349 -1.349 -1.359 -1.363 -1.363 -1.363 -1.353 -1.353 -1.353 -1.363 -1.383 -1.421 -1.471 -1.521 -1.571 -1.631 -1.681 -1.731 -1.771 -1.803 -1.823 -1.843 -1.863 -1.873 -1.883 -1.863 -1.803 -1.724 -1.634 -1.554 -1.484 -1.454 -1.454 -1.484 -1.534 -1.598 -1.688 -1.788 -1.898 -1.978 -2.048 -2.098 -2.138 -2.179 -2.209 -2.239 -2.279 -2.319 -2.359 -2.409 -2.459 -2.498 -2.528 -2.548 -2.558 -2.568 -2.568 -2.578 -2.578 -2.583 -2.573 -2.573 -2.583 -2.593 -2.623 -2.633 -2.643 -2.649 -2.649 -2.649 -2.649 -2.649 -2.659 -2.669 -2.679 -2.687 -2.687 -2.687 -2.687 -2.687 -2.677 -2.667 -2.647 -2.636 -2.636 -2.646 -2.656 -2.666 -2.686 -2.696 -2.706 -2.719 -2.729 -2.749 -2.769 -2.789 -2.809 -2.839 -2.859 -2.890 -2.920 -2.940 -2.970 -2.990 -3.020 -3.060 -3.110 -3.157 -3.187 -3.207 -3.227 -3.267 -3.297 -3.317 -3.337 -3.363 -3.403 -3.433 -3.473 -3.513 -3.543 -3.583 -3.613 -3.638 -3.658 -3.688 -3.718 -3.748 -3.788 -3.818 -3.848 -3.869 -3.889 -3.899 -3.919 -3.949 -3.989 -4.029 -4.069 -4.109 -4.139 -4.169 -4.189 -4.229 -4.259 -4.309 -4.359 -4.412 -4.472 -4.522 -4.572 -4.622 -4.672 -4.732 -4.772 -4.812 -4.832 -4.872 -4.912 -4.952 -4.992 -5.022 -5.052 -5.078 -5.108 -5.138 -5.158 -5.168 -5.188 -5.218 -5.258 -5.300 -5.340 -5.370 -5.390 -5.390 -5.400 -5.420 -5.450 -5.474 -5.504 -5.544 -5.604 -5.674 -5.744 -5.804 -5.844 -5.858 -5.848 -5.848 -5.848 -5.848 -5.858 -5.868 -5.878 -5.884 -5.874 -5.874 -5.874 -5.894 -5.934 -5.974 -6.034 -6.099 -6.149 -6.179 -6.179 -6.169 -6.149 -6.139 -6.139 -6.137 -6.147 -6.157 -6.187 -6.217 -6.237 -6.267 -6.287 -6.300 -6.310 -6.320 -6.320 -6.320 -6.320 -6.330 -6.330 -6.325 -6.325 -6.325 -6.335 -6.335 -6.335 -6.335 -6.335 -6.344 -6.344 -6.334 -6.344 -6.344 -6.364 -6.374 -6.384 -6.378 -6.378 -6.368 -6.358 -6.358 -6.358 -6.358 -6.358 -6.348 -6.338 -6.328 -6.298 -6.278 -6.248 -6.228 -6.218 -6.215 -6.215 -6.205 -6.195 -6.185 -6.175 -6.185 -6.195 -6.199 -6.199 -6.209 -6.209 -6.209 -6.219 -6.229 -6.239 -6.241 -6.231 -6.211 -6.181 -6.161 -6.121 -6.071 -6.021 -5.973 -5.933 -5.903 -5.883 -5.853 -5.823 -5.783 -5.733 -5.668 -5.618 -5.568 -5.528 -5.508 -5.498 -5.498 -5.508 -5.522 -5.532 -5.532 -5.532 -5.522 -5.512 -5.492 -5.482 -5.476 -5.466 -5.466 -5.476 -5.486 -5.486 -5.476 -5.436 -5.391 -5.321 -5.251 -5.181 -5.121 -5.071 -5.021 -4.971 -4.932 -4.902 -4.862 -4.832 -4.802 -4.772 -4.732 -4.702 -4.672
1.817 1.887 1.977 1.987 2.087 2.113 2.113 2.163 2.323 2.333 2.523 2.503 2.573 2.472 2.452 2.292 2.192 2.052 1.902 1.842 1.762 1.695 1.605 1.535 1.455 1.395 1.325 1.305 1.275 1.265 1.235 1.075 0.915 1.565 1.455 0.845 0.745 0.426 0.596 0.866 0.726 0.776 0.116 0.126 0.046 -0.223 -0.263 -0.303 -0.343 -0.383 -0.423 -0.473 -0.513 -0.547 -0.587 -0.617 -0.637 -0.657 -0.677 -0.707 -0.757 -0.808 -0.868 -0.928 -0.978 -0.998 -1.008 -0.988 -0.958 -0.914 -0.844 -0.784 -0.734 -0.724 -0.724 -0.744 -0.764 -0.796 -0.816 -0.836 -0.846 -0.856 -0.866 -0.866 -0.876 -0.892 -0.912 -0.922 -0.932 -0.932 -0.932 -0.942 -0.932 -0.927 -0.917 -0.917 -0.937 -0.957 -0.987 -1.027 -1.067 -1.092 -1.112 -1.112 -1.102 -1.102 -1.102 -1.092 -1.092 -1.078 -1.078 -1.078 -1.068 -1.078 -1.108 -1.148 -1.188 -1.219 -1.239 -1.259 -1.269 -1.279 -1.279 -1.279 -1.279 -1.273 -1.273 -1.273 -1.273 -1.273 -1.273 -1.293 -1.323 -1.371 -1.421 -1.481 -1.541 -1.601 -1.661 -1.701 -1.741 -1.763 -1.793 -1.803 -1.823 -1.833 -1.833 -1.823 -1.773 -1.694 -1.604 -1.514 -1.454 -1.414 -1.414 -1.444 -1.494 -1.568 -1.668 -1.768 -1.868 -1.948 -2.018 -2.068 -2.118 -2.149 -2.189 -2.219 -2.259 -2.299 -2.339 -2.389 -2.439 -2.478 -2.508 -2.528 -2.538 -2.538 -2.538 -2.548 -2.558 -2.563 -2.563 -2.563 -2.573 -2.593 -2.613 -2.623 -2.633 -2.649 -2.649 -2.659 -2.659 -2.649 -2.649 -2.649 -2.659 -2.667 -2.667 -2.677 -2.677 -2.667 -2.647 -2.627 -2.607 -2.606 -2.606 -2.616 -2.636 -2.656 -2.676 -2.686 -2.706 -2.719 -2.729 -2.749 -2.769 -2.789 -2.809 -2.839 -2.859 -2.890 -2.910 -2.930 -2.950 -2.970 -2.990 -3.020 -3.060 -3.097 -3.127 -3.147 -3.177 -3.207 -3.237 -3.267 -3.297 -3.333 -3.363 -3.403 -3.443 -3.483 -3.513 -3.553 -3.593 -3.618 -3.648 -3.668 -3.698 -3.728 -3.758 -3.778 -3.808 -3.839 -3.859 -3.879 -3.899 -3.929 -3.969 -4.019 -4.059 -4.099 -4.129 -4.159 -4.189 -4.219 -4.259 -4.309 -4.349 -4.402 -4.442 -4.492 -4.542 -4.592 -4.652 -4.712 -4.772 -4.812 -4.842 -4.882 -4.912 -4.952 -4.982 -5.002 -5.032 -5.068 -5.098 -5.128 -5.138 -5.148 -5.168 -5.198 -5.238 -5.280 -5.320 -5.340 -5.350 -5.350 -5.360 -5.380 -5.410 -5.444 -5.484 -5.534 -5.604 -5.674 -5.734 -5.794 -5.834 -5.848 -5.848 -5.848 -5.838 -5.838 -5.838 -5.838 -5.848 -5.854 -5.854 -5.854 -5.854 -5.874 -5.904 -5.944 -5.994 -6.049 -6.099 -6.129 -6.139 -6.129 -6.119 -6.109 -6.109 -6.107 -6.117 -6.137 -6.157 -6.187 -6.227 -6.247 -6.267 -6.290 -6.300 -6.300 -6.310 -6.310 -6.320 -6.320 -6.330 -6.325 -6.325 -6.325 -6.325 -6.335 -6.335 -6.335 -6.335 -6.334 -6.334 -6.334 -6.334 -6.344 -6.354 -6.364 -6.364 -6.358 -6.348 -6.348 -6.338 -6.338 -6.338 -6.338 -6.328 -6.308 -6.298 -6.288 -6.268 -6.248 -6.228 -6.208 -6.198 -6.195 -6.185 -6.175 -6.175 -6.165 -6.155 -6.155 -6.165 -6.169 -6.169 -6.169 -6.169 -6.179 -6.199 -6.229 -6.239 -6.241 -6.221 -6.191 -6.161 -6.131 -6.091 -6.051 -6.001 -5.953 -5.923 -5.903 -5.883 -5.863 -5.823 -5.773 -5.703 -5.648 -5.588 -5.548 -5.508 -5.488 -5.488 -5.488 -5.498 -5.512 -5.522 -5.532 -5.532 -5.522 -5.512 -5.492 -5.482 -5.476 -5.476 -5.476 -5.486 -5.496 -5.486 -5.466 -5.416 -5.351 -5.281 -5.211 -5.151 -5.091 -5.041 -4.991 -4.951 -4.912 -4.882 -4.842 -4.812 -4.782 -4.752 -4.722 -4.692 -4.662
2.237 2.197 1.907 1.987 2.047 2.063 1.993 1.933 1.983 2.103 2.283 2.543 2.693 2.642 2.542 2.432 2.352 2.212 2.202 1.992 1.882 1.835 1.775 1.685 1.595 1.475 1.425 1.355 1.295 1.255 1.255 1.235 1.125 1.345 1.295 1.485 0.885 0.776 0.686 0.396 0.796 0.906 0.836 0.526 0.386 0.357 0.177 0.057 -0.193 0.197 -0.273 -0.313 -0.363 -0.417 -0.467 -0.517 -0.557 -0.587 -0.627 -0.667 -0.707 -0.768 -0.828 -0.888 -0.938 -0.958 -0.968 -0.958 -0.938 -0.884 -0.824 -0.744 -0.694 -0.674 -0.664 -0.684 -0.704 -0.736 -0.756 -0.766 -0.776 -0.786 -0.786 -0.796 -0.816 -0.852 -0.882 -0.892 -0.902 -0.912 -0.922 -0.922 -0.922 -0.917 -0.897 -0.897 -0.907 -0.917 -0.947 -0.967 -0.997 -1.012 -1.022 -1.022 -1.022 -1.022 -1.012 -1.012 -1.002 -0.998 -0.998 -0.998 -0.998 -1.018 -1.048 -1.098 -1.138 -1.169 -1.189 -1.199 -1.209 -1.219 -1.219 -1.209 -1.209 -1.203 -1.193 -1.193 -1.203 -1.203 -1.223 -1.243 -1.283 -1.341 -1.401 -1.461 -1.531 -1.591 -1.641 -1.681 -1.711 -1.733 -1.753 -1.773 -1.783 -1.793 -1.803 -1.793 -1.753 -1.684 -1.594 -1.514 -1.454 -1.424 -1.404 -1.424 -1.474 -1.558 -1.658 -1.758 -1.848 -1.928 -1.988 -2.038 -2.088 -2.129 -2.169 -2.199 -2.239 -2.279 -2.329 -2.369 -2.419 -2.458 -2.488 -2.508 -2.518 -2.518 -2.528 -2.528 -2.538 -2.533 -2.543 -2.543 -2.563 -2.583 -2.603 -2.623 -2.633 -2.639 -2.649 -2.649 -2.649 -2.649 -2.639 -2.629 -2.629 -2.627 -2.637 -2.647 -2.647 -2.637 -2.617 -2.597 -2.587 -2.586 -2.596 -2.616 -2.646 -2.666 -2.686 -2.696 -2.716 -2.719 -2.729 -2.739 -2.759 -2.789 -2.809 -2.839 -2.859 -2.880 -2.900 -2.920 -2.930 -2.950 -2.960 -2.980 -3.010 -3.037 -3.077 -3.107 -3.137 -3.167 -3.197 -3.227 -3.257 -3.303 -3.343 -3.383 -3.423 -3.463 -3.503 -3.543 -3.573 -3.608 -3.638 -3.658 -3.678 -3.698 -3.728 -3.758 -3.788 -3.809 -3.829 -3.859 -3.889 -3.919 -3.969 -4.009 -4.049 -4.079 -4.109 -4.139 -4.169 -4.209 -4.249 -4.299 -4.339 -4.382 -4.422 -4.462 -4.512 -4.562 -4.632 -4.702 -4.762 -4.812 -4.852 -4.882 -4.922 -4.952 -4.972 -5.002 -5.032 -5.068 -5.098 -5.128 -5.138 -5.148 -5.158 -5.178 -5.228 -5.270 -5.300 -5.310 -5.310 -5.320 -5.330 -5.350 -5.380 -5.414 -5.454 -5.514 -5.574 -5.644 -5.714 -5.774 -5.814 -5.838 -5.838 -5.838 -5.828 -5.818 -5.818 -5.828 -5.828 -5.834 -5.834 -5.834 -5.844 -5.864 -5.884 -5.914 -5.944 -5.989 -6.039 -6.069 -6.089 -6.089 -6.089 -6.079 -6.079 -6.077 -6.087 -6.097 -6.127 -6.157 -6.197 -6.227 -6.247 -6.260 -6.280 -6.290 -6.300 -6.300 -6.310 -6.320 -6.320 -6.325 -6.325 -6.325 -6.325 -6.325 -6.325 -6.325 -6.325 -6.334 -6.334 -6.334 -6.334 -6.334 -6.344 -6.344 -6.344 -6.328 -6.318 -6.318 -6.318 -6.318 -6.318 -6.318 -6.298 -6.288 -6.268 -6.258 -6.248 -6.238 -6.218 -6.198 -6.188 -6.175 -6.175 -6.165 -6.155 -6.145 -6.145 -6.145 -6.145 -6.139 -6.139 -6.129 -6.139 -6.159 -6.179 -6.209 -6.229 -6.231 -6.201 -6.171 -6.121 -6.091 -6.051 -6.011 -5.971 -5.933 -5.913 -5.903 -5.883 -5.853 -5.803 -5.743 -5.683 -5.618 -5.558 -5.518 -5.488 -5.478 -5.468 -5.468 -5.488 -5.502 -5.512 -5.522 -5.522 -5.522 -5.512 -5.492 -5.482 -5.476 -5.476 -5.476 -5.486 -5.486 -5.476 -5.446 -5.386 -5.311 -5.241 -5.171 -5.111 -5.061 -5.011 -4.971 -4.931 -4.892 -4.852 -4.822 -4.792 -4.762 -4.732 -4.702 -4.672 -4.642
